1128
-12.6931  -34.3811  117.721  102  102  89  
-11.0067  -34.8718  119.39  164  164  149  
-3.21802  -12.3401  42.6058  114  113  101  
-3.16973  -2.83325  9.77114  47  81  92  
-13.0601  -23.1627  81.0856  167  168  158  
-5.82468  -17.3957  60.7162  100  101  89  
-10.1242  -33.0614  115.682  163  162  153  
-11.6787  -19.1073  67.266  164  166  155  
-10.4927  -32.3399  113.787  127  127  117  
6.93513  -14.2419  50.4745  125  124  113  
7.36287  -14.6527  51.7861  96  95  83  
-12.5265  -23.6901  84.3145  114  115  106  
7.19393  -16.7252  59.9473  103  101  89  
4.52269  -18.6176  67.3147  98  95  81  
-9.97791  -15.7776  57.4455  167  170  155  
-7.99528  -13.6445  49.5371  169  169  157  
-5.03381  -14.2721  51.9433  164  167  152  
-5.34513  -19.5143  70.8121  89  90  78  
4.97929  -11.2984  41.4265  173  171  159  
7.3649  -14.3263  52.3739  169  167  153  
-10.3807  -26.5113  97.6045  108  109  99  
-3.30356  -10.0576  37.1298  172  171  161  
4.22379  -18.3725  67.5807  111  110  97  
-8.37173  -6.28677  23.3079  59  95  106  
-4.97351  -4.20096  15.5282  52  95  107  
-9.92815  -16.1578  59.8499  101  101  90  
-6.78447  -18.8841  69.7234  103  102  94  
-8.40315  -28.4546  105.354  167  167  154  
6.62577  -14.1552  52.3523  98  95  80  
5.86604  -14.0159  52.1428  106  105  93  
-10.0988  -17.3939  65.1815  108  108  99  
-6.64942  -19.7866  74.3439  110  109  100  
6.74651  -13.9898  52.6557  164  162  154  
7.26234  -14.0334  52.8172  169  166  154  
-9.12239  -14.2309  53.9627  166  169  157  
-8.85716  -14.5259  54.9185  164  166  155  
-2.98252  -5.18288  19.8144  132  134  121  
-8.36842  -12.2201  46.8933  135  135  123  
-3.2545  -8.72997  33.5795  97  96  85  
4.80522  -17.8299  68.3437  108  106  92  
6.95488  -13.8296  52.9893  173  171  160  
-9.15214  -22.6108  87.2768  101  101  88  
6.2704  -13.6974  52.803  167  165  150  
-6.30802  -4.85933  18.8719  54  95  102  
-7.87523  -24.4471  94.9317  98  97  87  
2.90761  -16.1028  62.292  113  114  99  
5.63795  -12.9797  50.1894  101  99  89  
9.40697  -17.6395  68.4141  109  107  97  
-6.81138  -5.14315  20.0962  40  74  83  
-11.6715  -8.41028  33.0838  57  102  113  
-4.8776  -11.701  45.8469  169  169  158  
4.49583  -27.1428  106.638  103  101  87  
3.51169  -17.3422  68.119  166  165  155  
-8.68015  -6.65975  26.3482  28  60  72  
-8.36377  -21.7822  86.1612  167  166  154  
-7.608  -23.1788  91.6817  162  162  147  
4.29589  -18.4517  73.1513  167  163  151  
4.61324  -17.3763  68.6707  174  172  156  
5.23168  -10.5779  41.9059  101  98  89  
7.10223  -13.5376  53.4752  162  160  150  
3.07797  -17.0855  67.9494  161  160  148  
3.40678  -17.1373  68.1539  157  156  143  
-8.65614  -6.09564  24.4149  31  64  79  
-5.29371  -4.13071  16.5285  57  98  115  
-8.57523  -19.8151  79.3658  108  106  96  
6.94932  -13.3972  53.5847  121  120  109  
-9.4093  -6.47028  26.0804  70  94  104  
-5.77381  -4.41237  17.7679  26  56  62  
-2.94169  -9.52001  38.4616  92  93  85  
2.64397  -16.7096  67.723  114  112  104  
2.43233  -12.3954  50.2231  86  82  74  
-3.36784  -5.48466  22.426  108  108  99  
-8.19035  -19.1197  78.048  168  168  158  
-7.83183  -20.0802  81.9677  167  166  155  
-3.19261  -8.6878  35.5447  106  104  94  
2.73833  -11.3338  46.3545  165  162  156  
2.97471  -16.5725  68.0306  170  170  159  
4.08147  -14.0956  58.409  100  97  87  
7.54347  -13.138  54.2449  126  125  114  
10.1293  -16.8798  69.7087  90  88  77  
-4.82196  -3.56757  14.8581  26  56  63  
-8.28784  -12.5934  52.4054  159  160  149  
2.35658  -12.0958  50.2839  123  124  113  
4.53372  -16.6198  69.1076  173  170  162  
2.97813  -16.1677  68.1216  170  170  160  
2.86796  -12.1076  50.9944  169  168  155  
7.67166  -12.9566  54.554  173  172  160  
-1.43308  -1.89954  8.02504  161  162  151  
-3.56092  -5.20759  22.1304  104  103  91  
-1.57186  -3.95942  16.7499  103  104  90  
8.90517  -16.5963  70.3681  169  169  156  
-9.24751  -6.13474  26.1943  16  45  57  
-12.4514  -8.33352  35.6094  23  55  66  
-6.66152  -4.75889  20.3003  29  54  56  
-7.60916  -17.218  73.5731  98  96  84  
3.30393  -12.0858  51.581  91  89  78  
4.88418  -16.2766  69.4911  175  174  161  
-7.2605  -17.6536  75.9423  170  169  155  
2.66219  -14.9626  64.5297  97  97  88  
8.7125  -16.4271  70.5907  102  99  85  
-8.56473  -5.73427  24.8061  53  100  118  
-5.78416  -4.11808  17.8464  40  90  102  
-6.78944  -18.1814  78.7427  170  169  158  
5.1567  -10.1777  44.0021  163  162  147  
-8.98712  -5.92258  25.7966  49  105  123  
-5.66189  -3.92366  17.1143  58  97  106  
-2.20786  -2.78365  12.0698  95  96  87  
-8.04017  -11.6625  50.8399  159  159  149  
-7.57581  -16.0675  70.06  115  116  102  
-4.76616  -10.9281  47.6207  93  92  79  
2.94098  -12.7949  55.9218  130  130  119  
3.87629  -15.8269  68.9592  171  170  160  
4.32762  -15.9014  69.2824  169  168  159  
4.78063  -15.9681  69.5711  103  102  92  
9.6246  -16.2568  70.8095  167  165  154  
-7.08464  -4.59324  20.188  37  75  89  
-2.14066  -2.84609  12.4241  163  165  154  
5.58989  -11.3258  49.8181  105  101  93  
6.65169  -11.5463  50.786  98  96  86  
-1.9745  -2.97457  13.0752  114  113  104  
-3.41767  -7.26446  32.1708  169  171  157  
-6.9916  -16.4233  73.1076  167  168  157  
7.58944  -12.4178  55.1974  103  101  91  
-1.92886  -2.71872  12.1445  157  160  148  
6.95474  -12.2765  54.9534  170  170  161  
-3.0435  -3.95293  17.77  124  125  116  
-6.90027  -15.9816  72.1451  166  167  151  
-6.49803  -16.6871  75.3313  166  168  155  
2.16105  -11.8475  53.9941  110  108  97  
3.0708  -11.3931  51.7317  171  170  159  
7.21788  -13.3896  61.0167  166  165  153  
7.71898  -12.2274  55.5093  171  171  156  
-6.99355  -15.2215  69.6955  114  112  102  
-6.62498  -15.9061  72.8326  108  106  97  
4.08069  -12.4645  57.2128  101  100  88  
-6.7292  -4.30824  19.8707  50  84  94  
-11.935  -7.71434  35.5524  56  105  118  
-7.55597  -5.00415  23.0196  48  103  118  
-5.71687  -3.83789  17.6868  34  76  88  
-2.84862  -5.68063  26.1244  94  93  82  
-3.92502  -11.3418  52.2702  109  111  99  
6.15928  -11.8887  54.7539  93  91  77  
-10.3648  -6.32808  29.3542  56  101  114  
-6.91901  -14.8429  68.9478  114  111  102  
-6.54987  -15.4993  71.9999  108  108  98  
8.22428  -12.0722  55.9973  109  107  96  
-15.2309  -9.03037  42.2487  39  68  77  
-3.3479  -7.37939  34.5889  166  166  155  
-6.30734  -15.6217  73.1002  167  169  158  
3.09641  -14.6345  68.4355  105  102  91  
-8.31698  -5.31296  24.9821  21  42  52  
-7.99155  -5.154  24.2304  23  44  51  
-7.01496  -14.168  66.7798  166  167  154  
3.52801  -11.157  52.5228  159  156  147  
-7.14016  -4.70663  22.2768  43  80  90  
1.86818  -9.39557  44.7061  158  156  147  
-6.8426  -4.19418  19.984  54  92  101  
-4.71905  -5.60206  26.7228  105  106  93  
-4.47501  -5.55386  26.4909  110  109  99  
-4.25483  -5.53216  26.386  114  115  104  
4.12129  -14.5344  69.4918  167  165  154  
3.5355  -11.0163  52.6349  112  110  96  
-4.92876  -3.0332  14.6217  25  62  72  
-7.50113  -4.81962  23.0708  33  63  74  
5.46588  -20.8062  100.295  94  92  83  
3.45316  -11.5462  55.7997  95  92  79  
7.60155  -12.6348  61.0598  172  169  157  
-11.5762  -6.67188  32.3555  16  54  66  
-3.13918  -3.59201  17.4013  158  158  145  
-4.88779  -5.87162  28.4367  160  160  146  
-4.64903  -5.84639  28.313  162  162  150  
-7.87252  -10.4646  50.7951  164  164  151  
-3.29953  -7.36673  35.8382  123  124  110  
2.1328  -10.9588  53.3616  114  112  102  
4.81972  -14.3489  70.1793  162  158  148  
3.37488  -9.62683  47.211  132  128  119  
6.68772  -10.4168  51.0867  115  108  98  
-2.11358  -2.66031  13.0872  104  103  94  
-4.29073  -5.63813  27.8193  101  99  90  
2.40144  -10.8769  53.7807  150  148  138  
3.66718  -14.0268  69.1349  146  143  133  
6.96384  -10.3917  51.357  98  91  81  
-5.66043  -6.30951  31.2772  115  117  103  
-7.91405  -9.01779  44.7724  102  103  91  
4.59122  -14.1022  70.0458  99  98  87  
7.24175  -10.3646  51.6219  127  122  108  
-4.46604  -2.60228  13.0005  51  88  100  
4.09947  -19.5081  97.732  97  97  87  
3.05047  -10.9254  54.8695  84  80  68  
6.58001  -9.59374  48.3335  124  123  112  
-12.1717  -6.74991  34.0184  17  54  60  
-3.51057  -3.86934  19.4874  156  157  142  
-4.40584  -5.60197  28.2913  162  163  150  
6.42779  -10.0671  50.9326  153  155  144  
7.41323  -11.2053  56.4884  144  144  132  
-5.74537  -6.59487  33.4738  159  160  146  
-2.07782  -4.27132  21.6936  116  115  103  
2.87469  -13.4286  68.2939  166  166  152  
3.44178  -13.5601  68.9626  162  162  147  
4.24781  -13.7267  69.8089  166  164  151  
7.2431  -11.854  60.4865  89  87  77  
10.3908  -14.3778  73.1077  97  95  80  
-13.2214  -7.0918  36.321  35  52  59  
-7.92719  -4.70025  24.0993  31  53  61  
-4.69984  -5.07968  26.0477  102  101  90  
3.38161  -9.13184  47.3176  122  119  108  
-8.41126  -4.67977  24.383  42  87  99  
1.90805  -9.78042  50.9069  106  106  94  
-6.2516  -6.95161  36.4484  90  89  80  
2.65271  -8.77632  46.2198  105  103  95  
3.0558  -8.89789  46.8617  162  161  150  
-12.7422  -6.76271  35.7661  46  89  100  
-8.35139  -4.54124  23.9485  43  88  104  
-6.79661  -3.89173  20.4924  55  93  111  
4.16802  -18.0915  95.9016  169  171  157  
2.10453  -8.53272  45.3063  128  130  116  
3.56078  -13.0649  69.1964  160  161  147  
7.97063  -10.8333  57.3247  171  172  159  
-3.32875  -3.62615  19.3814  123  124  114  
4.49142  -13.1486  70.2217  130  126  118  
6.90973  -10.6274  56.705  172  170  155  
7.21111  -10.96  60.2496  90  88  76  
-8.1383  -8.64865  47.7442  158  159  150  
-3.65574  -4.3121  23.7842  99  99  93  
-4.3325  -4.33258  24.107  113  115  104  
2.46701  -9.56017  53.457  100  99  87  
10.424  -13.309  74.1719  165  163  153  
-8.59314  -4.73632  26.6171  57  93  106  
-14.4845  -7.08547  40.1301  60  93  99  
3.40134  -8.37117  47.6078  92  90  78  
2.92727  -10.14  58.2453  166  167  157  
3.68989  -9.66698  55.5137  170  169  158  
6.99527  -10.0414  57.4093  171  171  156  
4.99004  -12.2001  71.0944  118  117  106  
-4.35556  -4.47567  26.2772  98  100  89  
-6.71883  -7.64995  44.912  111  113  100  
2.10396  -8.94233  52.7603  91  86  79  
2.73986  -9.13683  53.9126  166  164  153  
3.20821  -9.27182  54.7122  94  92  80  
8.90386  -12.5954  74.0746  92  88  77  
7.52854  -8.90461  52.5223  96  91  79  
2.37362  -8.94406  53.2625  97  95  86  
-8.1641  -8.63524  51.6835  102  103  92  
-0.594186  -10.448  62.572  110  108  98  
-3.64855  -6.4506  39.0717  124  125  112  
-5.50645  -5.00994  30.5707  98  96  88  
3.11372  -8.90696  54.5673  154  153  143  
-8.04627  -7.70794  47.4348  97  96  88  
-0.941759  -13.4234  82.813  124  123  111  
-0.388218  -20.4672  125.827  117  115  107  
-5.15791  -5.3867  33.5317  164  163  151  
2.00511  -7.0587  44.0224  97  96  88  
-0.499421  -10.0187  62.943  115  114  104  
2.89829  -10.9677  68.9291  167  166  155  
3.11533  -8.65735  54.603  96  94  87  
6.82249  -8.27272  52.1538  165  163  152  
7.48192  -8.37161  52.78  100  95  82  
-7.73646  -3.46983  22.0158  18  33  34  
-9.62367  -4.22224  27.0065  12  37  47  
-10.7587  -4.82344  30.902  23  42  50  
-9.31401  -4.43525  28.3853  20  43  52  
2.65183  -8.37218  53.8596  163  163  153  
3.71411  -10.9347  70.1025  163  163  153  
3.59354  -8.61047  55.401  168  166  154  
4.0806  -8.72547  56.1448  171  170  160  
-13.7358  -6.27069  40.488  17  55  69  
-8.1619  -8.4036  54.3616  87  86  78  
2.78964  -10.642  68.9115  91  89  80  
5.39832  -6.2974  40.6238  80  76  66  
-9.27963  -4.34872  28.6837  53  106  121  
-8.0437  -7.75632  51.1844  158  158  148  
3.12089  -8.24793  54.7109  94  90  81  
-12.194  -5.04423  33.6817  53  92  105  
-0.90464  -7.27391  48.7174  107  107  96  
-0.186556  -7.22819  48.4075  96  96  84  
2.6766  -8.48685  56.8999  100  99  89  
5.16456  -10.7807  72.0062  105  102  94  
5.88772  -6.71762  44.9503  160  158  146  
6.94844  -7.18364  48.3452  100  100  88  
-5.28241  -4.61  31.0642  89  89  78  
-4.67209  -4.62084  31.1373  164  164  153  
-8.35535  -7.73293  52.6618  93  92  82  
-1.70524  -8.8661  60.4248  116  116  103  
7.20542  -8.79817  60.264  85  83  73  
-0.460383  -7.2356  50.0348  112  110  102  
-0.111556  -7.05356  48.765  162  160  151  
-5.40139  -4.60792  32.0645  157  158  148  
-3.19897  -2.88099  19.8861  154  154  145  
-1.45511  -6.52894  45.6028  164  165  151  
-1.35202  -8.73913  61.5266  161  160  148  
4.45977  -10.1521  71.5366  106  101  89  
-3.48241  -2.98376  21.0665  118  120  109  
-0.949753  -4.5818  32.7648  100  97  85  
2.56892  -6.62937  47.3441  80  79  66  
3.99828  -8.29679  59.3639  91  86  73  
6.68239  -6.6945  48.0747  170  167  156  
-9.50797  -3.64874  26.2993  65  98  108  
-2.69794  -4.17141  30.4736  97  98  87  
-0.808918  -6.51055  47.2891  91  89  79  
-0.386058  -6.92502  50.6144  159  159  149  
2.48424  -4.98737  36.5233  159  158  149  
6.96387  -6.59758  48.4661  93  85  75  
-1.47124  -6.17593  46.1473  164  164  154  
-1.06241  -6.30844  47.1477  164  163  153  
-0.744235  -9.15362  68.2359  97  96  86  
3.1716  -9.42036  70.2355  111  108  98  
5.71359  -9.82757  73.2906  121  121  108  
5.53462  -6.20695  46.6461  85  83  73  
-2.6806  -3.30991  24.9357  117  115  107  
-2.45998  -4.1875  31.6828  112  111  102  
-0.509011  -4.8093  36.4625  161  161  150  
-6.34896  -4.57559  35.3015  117  119  107  
-9.36016  -7.50719  57.9111  96  96  87  
-2.4531  -3.73845  28.9161  103  101  92  
-1.14832  -6.39109  49.516  164  163  153  
-0.151321  -6.65407  51.5746  95  95  85  
-4.29354  -5.43572  42.5532  105  105  98  
-3.97138  -5.53761  43.3609  164  162  154  
3.63736  -7.14498  56.1011  153  152  139  
-0.897631  -8.01632  63.4059  164  165  153  
3.93352  -7.11742  56.5812  91  88  75  
-0.639327  -3.8391  30.8347  93  93  84  
-0.45877  -4.60596  37.1095  161  159  148  
1.73271  -4.85336  39.1337  72  68  56  
-6.27457  -4.47825  36.2983  161  161  148  
-4.06426  -3.23705  26.2395  158  157  146  
-0.963716  -3.35332  27.555  104  103  94  
-1.2198  -5.77963  47.6246  162  161  151  
-0.467333  -4.24664  35.0576  96  94  85  
5.14606  -8.92195  73.3688  91  88  77  
4.99657  -5.0755  41.4852  92  90  79  
-10.2595  -3.45078  28.7403  6  38  47  
-9.83455  -3.39651  28.279  18  38  47  
-8.6338  -3.06439  25.4543  13  45  57  
-6.55215  -4.43991  36.923  93  93  81  
-0.189712  -5.97957  49.9405  94  93  82  
6.83063  -5.64245  47.0924  122  118  109  
4.90672  -4.41778  37.7193  78  74  61  
8.73126  -7.36127  62.4462  169  165  155  
-6.3837  -4.40512  37.6127  85  82  76  
-2.60805  -3.81001  32.6619  89  88  79  
-1.4727  -7.33756  62.6611  106  104  97  
-8.91023  -3.18542  27.5656  46  93  106  
-4.46024  -3.17233  27.4548  152  152  144  
-4.55442  -3.38024  29.2975  150  153  145  
7.08339  -6.98746  60.8683  142  140  128  
-14.7954  -4.65432  40.8666  58  100  114  
-4.58255  -5.01554  44.1021  103  105  94  
7.63883  -6.96476  61.5128  164  162  150  
-5.00433  -3.13793  27.9111  123  125  114  
-5.06228  -3.26378  28.8604  161  162  153  
1.83585  -4.67953  41.9753  80  77  70  
2.92915  -4.86205  43.6407  81  77  67  
5.61085  -5.26282  47.2974  100  97  86  
-4.44923  -3.12564  28.1957  159  159  151  
6.58641  -5.06909  46.1873  89  86  76  
2.05753  -4.60438  42.4928  158  159  149  
2.27425  -4.45998  41.1367  161  160  150  
5.67423  -4.89646  45.2395  96  92  82  
-4.84429  -3.16133  29.1529  155  157  146  
-3.0581  -3.5634  33.1958  158  156  148  
-4.09275  -2.53919  24.1425  80  81  70  
-4.60252  -3.05233  29.1808  93  92  84  
-4.42369  -3.05254  29.1833  156  159  148  
-0.747495  -3.70288  35.5767  90  86  76  
2.4356  -4.4906  43.3183  74  72  63  
5.29204  -4.66033  44.9906  115  114  102  
-10.0917  -3.11264  30.2169  35  80  92  
-2.5196  -3.03623  29.4727  156  154  144  
-4.89854  -3.13467  30.9247  158  157  150  
-6.02664  -6.78441  66.862  84  82  72  
-1.21662  -3.78511  37.5242  166  164  152  
-22.87  -6.47682  64.761  47  92  106  
-4.22766  -2.50635  24.9486  111  113  102  
-6.80151  -4.12012  41.2345  158  160  149  
-3.68146  -2.42489  24.1112  91  91  84  
-3.46402  -3.3539  33.6768  94  91  81  
-2.76413  -3.45212  34.6899  79  76  67  
-0.653387  -3.8412  38.7009  163  161  152  
4.93618  -3.74719  37.7466  91  89  80  
-3.78109  -4.09266  41.6193  77  73  65  
-1.22466  -3.69496  37.796  160  158  147  
-0.297935  -3.85305  39.4528  159  158  149  
-0.0700032  -5.30548  54.2175  81  80  71  
2.45848  -4.2593  43.7111  158  156  146  
-3.50331  -3.28674  34.0686  90  89  79  
6.03463  -4.09273  42.6709  111  109  98  
3.07459  -4.21882  44.7422  82  80  71  
-11.1196  -2.9254  31.2226  28  62  77  
-9.45793  -2.69194  28.6593  29  54  65  
-0.6609  -3.64992  39.2331  153  151  142  
2.50779  -5.23931  56.2613  88  85  76  
-1.30529  -3.44253  37.5883  95  94  83  
-9.55674  -2.37225  26.2387  47  71  82  
-6.53459  -3.93805  43.502  95  95  87  
-1.27944  -4.52638  50.1688  100  97  88  
-10.5644  -2.86753  32.225  28  44  50  
3.68944  -6.57693  74.0135  158  156  146  
-11.7015  -2.84789  32.5745  20  51  61  
-5.47463  -2.80457  32.09  86  88  78  
-2.90806  -2.7798  31.809  100  96  87  
-0.728631  -3.44525  39.6851  155  156  145  
-0.434268  -3.25791  37.4714  85  83  76  
5.74769  -4.1844  48.4492  90  88  77  
6.93346  -4.25468  48.8432  86  79  70  
-4.27589  -4.22376  49.332  100  98  88  
-0.268447  -3.32427  39.7097  118  116  106  
6.34562  -4.06892  48.4271  154  151  140  
-3.08294  -3.01798  36.6316  80  78  72  
6.49403  -3.93368  48.1379  82  75  67  
-4.46917  -4.03113  49.7963  137  134  127  
-9.86383  -2.18534  27.4851  16  52  63  
-4.95165  -3.9099  49.2256  77  76  68  
-3.90323  -3.61041  45.3689  151  148  142  
-2.60599  -2.62459  32.9835  111  108  101  
-0.083776  -3.19434  40.42  123  122  111  
1.94146  -3.48893  44.2695  93  91  83  
-5.75161  -2.58621  33.1299  162  162  155  
-4.69674  -2.24034  28.5378  160  162  151  
-5.29147  -2.65982  34.1121  159  159  149  
-5.10416  -3.83398  49.2294  120  119  112  
-3.07979  -2.89829  37.2977  144  142  134  
-1.05749  -2.87122  36.949  128  128  115  
2.85452  -4.49125  57.9265  147  144  134  
2.9253  -3.5229  45.6395  155  151  142  
-4.0277  -1.82713  23.7668  95  96  87  
-5.43683  -2.25654  29.9756  83  86  74  
-5.3135  -2.59004  34.6037  80  80  74  
3.17497  -3.41896  46.163  79  76  69  
-3.70591  -2.72127  37.2343  157  158  149  
7.53499  -4.14815  56.9328  163  159  147  
-4.24306  -3.70639  51.7823  161  160  149  
3.67899  -3.26604  47.0848  128  127  116  
6.98868  -3.35757  48.4692  94  91  83  
-7.39966  -3.30108  48.0812  156  157  149  
-0.190953  -2.1893  32.1688  108  106  99  
2.60704  -3.98436  58.4224  120  119  107  
-1.13076  -2.73512  41.0526  79  79  69  
3.21878  -3.10078  46.7819  152  151  141  
5.89746  -3.28692  49.7019  100  98  87  
-2.89536  -1.82323  27.8329  89  86  81  
-3.1011  -2.54844  39.0695  77  73  67  
1.67288  -2.21018  34.1277  98  97  87  
3.38697  -3.04758  47.0919  95  95  84  
-0.0677147  -3.70047  58.2097  89  88  77  
-1.32695  -2.55659  41.2519  162  163  149  
-0.368416  -3.40239  54.763  156  154  141  
2.35646  -2.70403  43.7649  80  77  67  
2.87699  -2.74397  44.4409  75  70  60  
6.1928  -2.96304  48.1531  103  101  87  
6.36535  -2.97307  48.3232  87  84  70  
-5.54353  -2.18462  36.8718  119  120  109  
-0.746533  -1.92162  32.7016  162  162  149  
5.81285  -2.37767  40.9734  107  104  91  
6.24623  -2.87528  50.6387  79  75  66  
-9.12043  -1.43182  25.5442  41  73  85  
-8.82934  -1.41738  25.2696  32  73  85  
-1.12653  -2.35202  42.204  104  102  93  
-13.9638  -2.15366  39.4577  43  86  97  
-0.553566  -1.80306  33.3458  162  161  150  
4.6922  -2.14433  40.1152  121  119  108  
4.96113  -2.16479  40.5182  151  150  139  
6.56027  -2.44488  45.3611  104  101  88  
-3.86268  -1.98139  37.3799  98  98  88  
-1.26513  -2.2366  42.5038  150  149  138  
-14.3784  -2.0433  39.6858  44  77  87  
-13.7997  -2.05144  39.8591  33  79  92  
-3.15515  -2.02038  39.3786  93  91  83  
-4.65622  -1.38267  27.5273  92  94  84  
-1.17637  -2.1228  42.8809  79  78  68  
-0.184157  -2.18596  44.239  84  84  76  
1.9704  -2.18327  44.2145  73  71  61  
3.24469  -2.36999  48.2039  80  78  70  
-11.5409  -1.53169  31.6834  45  74  81  
-4.04342  -1.9599  40.7103  154  153  146  
-3.75602  -1.97314  41.0063  147  148  138  
-1.13082  -1.65442  34.6133  151  151  142  
-0.754926  -2.08592  43.5347  103  103  94  
5.98233  -2.32373  48.8737  161  157  148  
-13.8942  -1.88608  39.6114  23  51  61  
2.31139  -2.1902  47.4963  158  158  149  
2.94314  -2.21917  48.1668  163  162  150  
-4.51151  -1.27309  27.9431  90  90  81  
-4.60772  -1.39013  30.7577  102  101  93  
-1.4908  -1.94614  43.4014  94  94  86  
5.75438  -2.17235  48.8744  124  122  112  
-14.9681  -1.81546  41.5764  15  47  64  
-14.4747  -1.80957  41.443  16  35  43  
-0.560851  -1.91512  44.3039  159  160  148  
-0.0249585  -2.49855  57.5449  162  162  148  
-3.83764  -1.75569  41.9201  77  73  68  
6.30779  -2.05004  49.631  140  136  127  
6.83835  -2.06874  50.1187  141  137  129  
5.97398  -1.72274  42.0927  96  93  82  
-8.44793  -1.97439  48.3694  110  112  101  
-5.48635  -1.43391  35.0566  147  147  140  
-0.770425  -1.78855  44.5783  99  98  89  
7.19468  -2.37906  59.2287  106  104  94  
-0.150591  -1.74222  45.2187  107  105  96  
-14.4443  -1.58984  42.478  13  40  50  
-6.97177  -1.51228  40.4192  154  156  145  
6.35866  -1.83279  50.0264  92  88  76  
6.3257  -1.70123  46.2146  91  84  71  
7.34276  -1.86229  50.9046  163  161  147  
-2.73942  -1.16893  34.3977  84  83  76  
-7.48384  -1.34872  41.19  81  80  72  
7.71716  -1.70922  53.7205  109  107  92  
-3.42349  -1.0625  34.3585  141  143  135  
1.82383  -1.17655  38.6801  157  156  145  
3.12728  -1.52065  49.8562  160  160  148  
-12.5777  -1.03604  35.0441  8  35  44  
-11.997  -1.01845  34.3807  16  40  52  
-11.5641  -1.00698  33.962  22  49  61  
-7.2179  -1.2393  41.8602  151  151  141  
-4.71842  -0.900714  30.1126  156  156  146  
-4.49886  -1.27625  43.3372  101  101  93  
5.50057  -1.33635  45.9271  83  82  70  
2.75692  -1.09892  40.4306  99  97  88  
7.02398  -1.45521  53.5362  95  93  83  
2.07215  -1.20806  46.3827  101  98  91  
7.39017  -1.33044  51.7834  158  157  146  
-10.9674  -0.844939  33.7297  35  92  107  
-6.85247  -1.06611  42.8089  82  82  75  
-6.39077  -1.06565  42.8085  81  82  76  
-1.58442  -1.13871  46.3353  69  69  58  
-13.2149  -0.847117  36.3536  48  92  109  
-1.09417  -1.07739  46.8624  102  102  92  
-0.662285  -1.08197  47.106  100  98  91  
-5.7898  -0.743675  34.148  80  80  71  
-4.83619  -0.897441  44.6244  82  81  73  
-3.19575  -0.719284  36.0078  84  83  76  
-0.886524  -0.942535  47.4545  157  157  145  
6.56036  -1.00686  51.5934  163  161  152  
7.10607  -1.0144  52.0595  160  156  148  
7.38171  -1.0181  52.2889  161  159  149  
-4.27692  -0.809782  43.4723  95  93  86  
-3.49854  -0.850236  46.0879  76  75  68  
-3.56809  -0.588401  34.4924  156  153  147  
-3.39064  -0.612806  36.3234  155  154  144  
-2.91325  -0.584767  34.2713  156  154  146  
-1.12757  -0.625477  37.4409  158  157  147  
-0.726193  -0.627292  37.6061  153  154  141  
-0.452904  -0.733888  48.3968  155  154  145  
5.19611  -0.629605  43.2104  86  83  72  
-1.19842  -0.658404  48.2692  102  102  91  
2.44588  -0.547808  41.4724  107  106  98  
10.4313  -0.957793  71.438  89  87  76  
-13.6644  -0.471665  38.0729  40  78  96  
-17.0395  -0.598869  48.057  40  77  93  
-13.1347  -0.46657  37.5607  33  79  93  
-3.63866  -0.43535  35.1913  155  154  146  
-3.44777  -0.450544  36.9523  155  154  144  
-0.116504  -0.587827  48.8162  88  86  77  
1.78781  -0.481295  41.1131  90  89  80  
2.67564  -0.610561  51.5161  87  85  76  
3.87043  -0.618889  52.5232  76  73  67  
2.7241  -0.41834  41.3337  157  154  143  
-5.99961  -0.334575  36.0607  97  98  93  
-0.382035  -0.318913  34.3643  157  153  145  
-10.8761  -0.239886  30.6613  14  48  61  
-1.44678  -0.364549  49.1675  156  155  145  
-0.918668  -0.36516  49.4138  155  153  145  
1.67794  -0.292585  41.5128  162  162  152  
3.05325  -0.360465  49.356  83  82  71  
6.53912  -0.372767  52.7003  162  160  149  
-4.51272  -0.281364  45.9204  95  92  87  
-14.1901  -0.181129  39.5386  13  44  54  
-15.2132  -0.218453  43.3964  26  37  49  
-12.1715  -0.174839  35.5196  41  80  92  
-6.45347  -0.169354  36.7597  82  83  76  
-7.91462  -0.215902  46.785  149  151  140  
-3.0656  -0.164799  36.1216  153  152  143  
-0.752369  -0.165028  39.2018  156  155  146  
3.3923  -0.268506  58.7921  150  150  139  
3.85556  -0.213813  53.4222  151  147  139  
6.47597  -0.162254  45.0889  94  90  77  
-4.46477  -0.139901  48.1121  146  147  138  
1.96998  -0.0995248  42.2274  153  148  141  
2.63619  -0.0988936  41.9444  150  149  140  
5.78269  -0.128071  48.244  96  95  84  
-14.496  -0.0584746  40.2192  22  43  55  
-3.15171  -0.0434034  30.39  158  158  146  
-0.885279  -0.0522494  35.6013  95  93  85  
1.64048  -0.034862  42.1543  96  94  84  
-3.60496  0.010951  38.683  153  152  142  
2.99347  0.0294733  52.1705  74  70  60  
-4.97728  0.0505186  30.878  152  153  144  
-6.19798  0.109172  36.097  143  142  135  
-3.70276  0.122172  37.5434  95  94  87  
2.18433  0.195618  53.0828  160  160  147  
2.41979  0.168586  43.2149  154  152  140  
2.98164  0.171861  43.594  154  152  142  
-4.43428  0.128882  26.8393  98  100  92  
-4.717  0.151609  31.5223  93  94  86  
-4.18768  0.23043  47.9216  82  81  75  
-0.0763755  0.265306  51.822  110  109  100  
2.47639  0.254804  50.0381  148  147  136  
3.58994  0.289473  54.3915  103  101  91  
-6.56197  0.224355  36.5814  85  85  77  
2.35297  0.317799  36.4262  156  155  142  
2.15567  0.428059  42.6705  150  150  142  
-11.5207  0.374408  34.0149  19  39  49  
6.65544  0.57303  50.2798  152  150  140  
-14.7604  0.532858  42.4  22  50  62  
-0.183522  0.552864  42.434  93  92  82  
3.12548  0.720707  55.1005  88  86  77  
-1.53757  0.730627  51.0338  96  95  85  
-0.922774  0.604934  41.738  87  86  76  
1.71675  0.648419  43.9858  96  95  86  
3.86899  0.493241  32.3687  83  80  71  
-11.1764  0.535856  34.2376  35  85  104  
-5.81605  0.50171  33.417  95  96  86  
-0.283381  0.579007  35.6365  153  153  143  
3.19808  0.723391  44.2479  93  92  80  
8.22774  0.921648  56.3736  91  89  77  
-13.0661  0.619967  35.8251  51  92  106  
2.37253  0.801473  44.7701  156  154  143  
-7.11043  0.735382  39.3307  105  105  100  
-6.60855  0.725611  38.8647  152  153  144  
2.09636  0.870582  44.7863  132  131  118  
-3.91052  0.824742  40.3467  84  82  74  
-3.75447  0.858548  41.7454  98  96  88  
-0.743651  0.885282  42.6844  148  149  140  
3.35146  1.15192  55.3064  96  94  83  
-5.63592  0.744336  33.8775  118  119  110  
-3.62169  0.737732  33.5168  155  156  147  
-1.43295  0.94802  42.6017  156  158  147  
-0.146726  0.798692  35.643  97  97  86  
-3.83004  0.962057  40.8247  148  147  140  
-1.08209  1.02738  43.0882  156  157  146  
-3.69276  1.07422  42.5361  155  154  146  
-2.90557  0.890574  35.175  150  149  140  
-0.723782  0.985633  39.305  79  78  68  
-0.389384  1.11812  43.9005  156  155  143  
6.00405  1.06485  40.6549  84  80  70  
-0.958798  1.17541  43.5842  102  100  93  
-4.60917  1.20367  42.5294  85  84  76  
-4.10625  1.17916  41.7346  72  73  65  
-3.77097  1.17467  41.5782  75  75  65  
-1.50143  1.24647  43.7304  89  89  83  
3.34146  1.34567  46.6272  97  94  83  
6.12074  1.38482  47.7293  89  85  74  
-6.29857  1.22062  41.1531  80  79  73  
-3.4333  1.30078  43.4238  77  74  69  
-3.30335  1.30274  43.4766  148  147  140  
2.23878  1.40257  46.2228  86  84  75  
-7.39578  1.29938  41.6383  81  83  75  
-3.31596  1.08763  34.6561  146  147  138  
5.92123  1.53828  47.9083  160  159  148  
6.50856  1.47534  46.0806  163  159  147  
-3.79837  1.44718  43.7846  132  132  125  
-3.66831  1.44956  43.8444  99  98  95  
-0.629114  1.82304  55.1025  88  87  76  
2.78202  1.5713  46.9148  98  95  84  
5.61869  1.61019  47.8629  90  86  77  
-2.78388  1.26485  36.4578  97  97  87  
-7.59199  1.57283  43.7008  148  150  139  
-6.86805  1.57796  43.8012  147  150  140  
-4.03785  1.59815  44.2003  86  85  78  
-3.57779  1.60731  44.4134  150  151  141  
6.39933  1.79265  48.7065  160  157  146  
6.56494  1.79712  48.8128  158  156  146  
-7.24852  1.65577  44.0684  147  149  140  
7.43672  2.22369  58.3915  88  84  72  
7.00698  1.8913  49.2522  80  74  64  
8.74863  2.26159  59.28  158  154  142  
-2.94209  1.45878  37.0576  151  152  142  
-3.28141  1.77235  45.0629  123  124  112  
5.57293  1.82739  46.0262  157  153  144  
-4.39713  1.79524  44.0518  147  147  137  
2.54175  1.97284  47.8151  152  150  140  
3.1538  1.98698  48.113  152  151  138  
3.30789  1.99045  48.1859  153  150  139  
-5.95067  1.50145  35.6337  98  99  91  
-5.66863  1.55759  36.8289  87  87  82  
-4.85225  1.89736  44.8169  84  85  76  
-1.13617  1.60762  37.7451  91  90  79  
-0.436769  1.59392  37.427  85  83  74  
2.32516  2.05104  47.9188  94  91  82  
2.9371  2.06571  48.2178  96  95  81  
4.86905  1.74106  40.4002  156  154  141  
5.01239  1.62961  38.0141  103  100  88  
5.77816  1.7737  41.0695  159  157  146  
5.9913  1.78106  41.2202  108  105  94  
-13.7665  1.69899  37.6791  52  87  99  
-7.28577  2.06925  45.59  90  87  83  
-7.14696  2.06996  45.5997  103  102  95  
-2.89337  1.73066  37.9426  116  116  109  
-0.118782  2.14783  46.9558  114  112  104  
2.3477  2.22063  48.3614  89  86  77  
2.96472  2.23595  48.6541  91  88  79  
6.38622  2.17385  47.2712  158  156  142  
2.6317  1.93063  40.528  151  151  140  
2.79165  1.93375  40.5824  151  149  138  
5.02035  1.85477  38.9701  84  81  68  
-4.02968  2.19943  45.2905  150  153  141  
2.09122  2.29422  46.9163  155  153  143  
2.68092  2.40142  48.9567  156  154  145  
6.22075  2.07122  41.8929  104  101  90  
5.71671  2.38735  47.1907  151  148  133  
-3.73523  2.07181  38.8304  156  156  146  
1.77456  2.20219  40.9336  88  88  79  
3.03596  2.67531  49.7793  115  114  102  
5.51434  2.54081  47.3342  120  119  106  
-6.90356  2.11816  38.6989  86  89  79  
-6.35948  2.06361  37.7581  73  73  66  
-8.40458  2.99759  55.0461  79  80  74  
-0.119034  2.66478  48.3732  94  92  85  
2.65434  2.75508  49.8411  151  149  141  
9.30854  3.58228  64.6838  102  99  88  
-1.06652  2.24685  39.6726  89  88  79  
-14.5833  2.45903  42.4907  23  60  77  
-4.345  2.73711  47.2424  119  118  106  
6.35608  2.51459  42.7874  115  112  100  
3.06493  2.53195  42.1174  109  106  98  
-15.2833  2.64544  43.3689  23  41  48  
-13.5604  2.52362  41.4573  40  88  103  
-6.62959  2.58473  40.3015  101  102  95  
-6.3219  2.58613  40.3135  103  102  95  
-0.675899  2.22128  34.4517  152  152  142  
-0.665451  4.23846  64.2955  153  152  141  
-7.26024  3.15359  47.0397  95  97  92  
-1.49177  3.33024  49.3844  152  151  141  
6.55405  3.05222  44.7678  84  81  71  
-6.77416  2.76613  40.2464  83  84  75  
-5.3886  2.40096  34.1498  146  147  140  
-1.73524  3.60551  51.0568  86  82  77  
-0.198025  3.59278  50.8458  83  82  74  
3.45375  3.72372  52.527  157  154  145  
3.62139  3.60815  50.9577  84  82  71  
6.15785  3.20002  44.9084  152  150  139  
-9.95818  4.7691  66.3163  120  122  113  
-1.28556  3.63129  50.3446  94  89  82  
-0.713829  3.70776  51.3443  89  87  78  
5.01169  3.1354  43.1789  87  85  74  
-6.88876  3.07931  41.8944  149  151  143  
-0.251826  3.15946  42.7616  153  151  142  
3.1533  3.91595  52.9262  100  95  89  
-1.20839  3.03282  40.3591  148  148  139  
-0.560393  3.91291  51.9377  154  153  143  
5.18721  2.87327  37.8354  110  107  97  
7.87527  4.09885  54.1013  159  156  148  
-14.3923  3.00871  39.2491  57  82  97  
-5.50163  2.74116  35.7557  89  88  80  
-8.71571  4.05099  51.8615  89  91  81  
3.10594  3.50446  44.4752  154  153  141  
-6.81783  3.3508  42.0608  71  71  62  
-0.618166  3.45145  43.1147  112  113  104  
3.13349  4.32824  53.9572  145  143  133  
3.38168  4.17312  52.0865  139  137  128  
-1.15718  3.54309  43.4232  88  86  78  
3.00488  3.99688  48.1925  79  77  67  
5.72115  3.81035  45.5706  92  89  78  
-0.934372  3.72892  44.0081  94  94  87  
3.19955  3.65263  43.0536  80  77  68  
6.16032  3.84823  45.1936  110  107  93  
2.68042  4.7441  54.8955  88  84  79  
2.61411  3.93229  45.4337  140  139  128  
2.90422  3.8995  45.0631  142  140  130  
5.55465  3.98321  45.9341  107  105  94  
-14.4918  3.54013  40.4514  32  74  85  
-21.2878  5.45193  62.2831  38  79  92  
-7.37699  3.83798  43.8647  69  70  61  
2.95554  4.86262  55.2617  145  144  135  
-17.9024  4.41059  49.5178  38  74  86  
-17.2716  4.40572  49.4506  10  32  45  
-7.34701  3.9843  44.7114  145  147  138  
3.07806  4.08458  45.556  92  90  80  
2.32896  3.58648  39.2694  93  91  83  
-15.7584  4.31206  46.8744  16  45  62  
-6.61679  3.9865  43.2951  86  85  78  
2.37929  4.29337  46.2824  89  86  81  
6.28507  4.28312  46.0914  156  154  144  
2.10175  4.38108  46.4564  156  153  144  
8.21001  5.07806  53.8585  122  119  109  
-13.9482  3.59432  37.8968  41  68  76  
-14.9243  3.98801  41.8391  16  30  37  
-14.7964  3.98833  41.8394  20  39  52  
-6.40712  3.62868  38.0704  73  75  65  
3.84053  5.4545  56.9226  151  148  139  
4.81627  3.92533  40.7916  91  87  78  
6.89629  4.62239  48.0619  81  76  67  
-13.5766  3.81738  39.508  11  33  47  
-0.423167  3.82329  39.2826  151  152  142  
-1.92506  5.62622  57.0049  92  92  81  
-1.19133  4.64287  46.2923  90  89  79  
3.50202  4.84353  47.4207  111  108  100  
-7.33823  5.00931  47.8224  74  75  67  
-0.209077  6.00354  57.2117  153  152  142  
-6.80227  4.2787  40.254  73  72  65  
-0.705  4.26018  39.9645  148  147  134  
-10.7367  3.48876  32.3518  24  48  58  
2.71752  4.49122  41.4021  144  143  136  
6.28432  4.6328  42.5886  96  94  85  
-13.0029  4.14222  37.8562  14  38  48  
-0.578028  4.9883  45.5622  74  74  62  
-16.2173  4.95691  44.7014  11  43  58  
-15.8444  4.97012  44.8074  16  42  55  
-6.80756  4.55466  41.039  145  146  135  
-7.61865  5.37452  48.4484  144  145  136  
-0.83074  5.39208  48.4679  149  148  137  
-0.0303685  6.51693  58.6159  76  73  66  
4.09921  6.39606  57.4771  80  78  71  
-1.2394  5.45142  48.3456  90  89  80  
-1.09189  5.4607  48.4222  151  149  141  
-0.458429  5.4902  48.663  141  140  129  
-0.271668  5.50528  48.7885  150  149  139  
2.69798  5.35565  47.4489  73  71  61  
7.38358  6.72894  59.5221  73  71  62  
-6.70582  4.49775  39.5021  102  103  93  
-9.46281  7.2166  62.4037  96  94  86  
-1.4563  5.73592  49.4846  155  153  142  
7.10446  5.72699  49.2454  150  146  134  
-16.8272  5.36386  45.8051  47  83  96  
-18.4673  6.60513  56.3535  34  70  87  
-1.02392  4.92161  41.8733  88  86  78  
-0.730964  5.80446  49.4085  86  84  75  
2.88418  5.80053  49.307  150  147  140  
-0.0443126  5.94952  49.9581  155  154  143  
-8.3319  6.13798  51.0123  105  105  98  
-1.2579  5.09032  42.199  152  153  144  
-0.46907  6.04941  50.1518  152  148  140  
2.95466  6.25316  51.0934  75  73  64  
3.58847  6.25869  51.1256  70  66  58  
6.3086  6.06984  49.5743  76  68  63  
6.77124  6.32342  51.5801  80  73  68  
-0.0724023  7.77274  62.8284  108  107  98  
-1.47796  5.38663  42.9894  95  94  84  
5.29913  5.45578  43.3986  83  79  67  
6.47722  6.39062  50.2748  141  135  123  
8.62006  8.07001  63.4684  84  79  69  
-6.76296  5.6487  44.0661  77  76  70  
-0.0895388  5.45051  42.4521  108  106  96  
-8.21683  6.26823  48.4719  89  91  80  
2.95728  6.83218  52.4847  82  80  70  
5.67565  5.87409  45.0138  157  153  139  
6.70537  6.61812  50.8148  155  152  139  
-6.31421  5.10432  38.418  146  146  137  
9.01864  8.51586  63.8595  148  144  135  
8.63864  7.93924  59.6264  146  142  133  
6.74087  6.09855  45.6208  84  78  71  
-4.13968  6.00407  44.6313  111  111  102  
3.17467  7.01225  51.4604  144  142  132  
-0.950906  5.92428  43.0512  82  81  73  
6.67253  7.45474  53.9664  81  76  67  
6.02751  5.69878  41.3457  105  100  88  
-4.41882  6.31921  45.4003  150  151  141  
-0.700002  7.45353  53.5067  98  96  87  
-6.6521  5.56526  39.5674  76  75  67  
-7.09336  6.47148  46.0158  82  80  75  
-0.161813  7.1383  50.7476  89  87  78  
-3.49372  6.5653  46.1115  86  87  78  
-0.426806  5.64886  39.6147  156  154  144  
2.57806  6.57902  46.0992  69  68  57  
7.66075  7.5709  53.038  154  153  141  
-4.31638  6.64621  46.1944  98  98  88  
-16.2359  6.87782  47.4791  39  79  94  
-6.07478  8.25685  56.7794  82  82  72  
-4.64714  6.78768  46.6712  83  82  74  
-4.72039  8.10529  55.7403  110  108  99  
-4.12922  6.89568  46.9029  151  150  137  
-3.7724  6.90418  46.9529  150  150  139  
-0.910807  6.84768  46.5305  85  83  73  
-0.378147  8.12466  55.2257  97  97  86  
3.41018  8.22099  55.7996  156  154  143  
8.0374  7.94655  53.899  76  71  62  
-16.2231  7.25238  48.9762  32  77  93  
-4.8623  7.03904  47.382  149  147  139  
3.0953  6.98773  46.9103  137  136  126  
-6.31511  6.17393  41.1423  85  86  76  
-4.53693  7.11602  47.4048  149  148  138  
-0.775509  7.07863  47.0983  147  146  136  
-0.23026  7.04045  46.8424  151  150  140  
3.33504  7.10807  47.2186  81  79  70  
7.03109  7.13266  47.3147  71  68  55  
-3.98707  7.25434  47.8155  86  86  76  
-0.429279  8.63218  56.8539  138  136  128  
-16.4513  7.65872  50.1308  34  72  86  
-4.5922  7.35422  47.9943  147  147  137  
-5.2472  8.93446  58.3046  94  93  83  
-1.2201  7.28501  47.4981  151  151  141  
2.68156  7.35348  47.8665  79  76  66  
-19.5974  8.34895  54.0362  14  37  49  
-7.55587  7.62661  49.2928  84  84  78  
-4.97961  7.45561  48.1755  152  149  139  
-1.85433  8.68743  56.1239  153  151  142  
-0.786922  7.42389  47.9052  79  77  68  
7.67798  8.51796  54.8936  87  81  73  
7.95281  8.54018  55.0292  151  147  136  
-18.4804  8.65462  55.4018  22  37  42  
-4.28219  7.61271  48.6812  148  148  135  
-4.67519  9.13885  58.4531  145  145  134  
-0.0482891  7.56985  48.3434  74  70  61  
-7.54168  7.34256  46.6137  74  71  68  
-7.88256  7.88014  49.9293  133  131  126  
-5.25599  7.68547  48.6862  89  91  82  
-1.66404  7.71697  48.8196  80  78  70  
-0.272544  7.6816  48.5784  151  149  137  
2.88977  7.63797  48.2569  150  146  136  
3.8499  8.94533  56.557  151  149  136  
5.93238  7.58496  47.8795  75  71  62  
-4.91441  9.43617  59.1789  121  120  107  
7.51145  8.87586  55.5371  154  149  140  
-0.634398  5.97261  37.0191  149  149  135  
-9.19312  8.44051  51.9314  75  75  64  
-8.49046  8.25697  50.8214  141  142  131  
-5.13387  8.07837  49.696  142  143  135  
-4.52797  9.77603  60.1232  95  95  84  
-1.63299  7.97399  49.0128  153  152  141  
-1.07666  8.06406  49.5429  85  82  74  
-0.464274  8.02365  49.2909  80  78  68  
2.85951  7.98151  48.9835  83  80  70  
3.37978  8.04941  49.382  68  66  56  
7.05372  7.9901  48.9659  156  154  146  
-4.78882  8.29292  50.5107  140  140  131  
-1.26561  8.12238  49.4411  144  142  133  
7.01702  8.24325  50.0226  90  87  78  
-16.0079  7.94987  48.0142  24  38  46  
-5.19745  8.33717  50.3227  142  143  133  
-4.5959  8.37262  50.5211  83  84  74  
-4.86376  10.0848  60.8613  147  150  137  
-0.277259  8.29571  49.9978  84  83  72  
-20.7669  9.47959  56.788  18  46  56  
-6.92752  7.04818  42.2074  86  88  79  
-8.20583  8.69335  51.9977  147  148  141  
-5.45257  8.45074  50.5391  73  73  63  
-4.47122  8.51186  50.8788  129  130  120  
-0.389034  7.24111  43.2196  148  148  136  
-14.8304  7.61296  45.2162  36  68  83  
-1.51603  8.48484  50.2242  115  115  104  
8.59473  9.74411  57.5822  78  76  67  
-15.0849  7.63387  44.9464  23  45  55  
-3.89996  8.80022  51.6267  79  80  71  
-0.680667  8.21227  48.2103  109  109  99  
-0.044893  8.68804  50.9222  102  101  94  
2.89127  10.413  61.0102  94  93  83  
-4.71214  8.91213  51.8257  77  75  67  
4.04922  10.2273  59.3988  88  82  74  
3.67329  8.7497  50.7687  114  110  101  
-8.19311  9.27835  53.4945  88  88  77  
-5.4203  9.18467  52.9225  146  143  136  
-4.22011  9.05357  52.166  141  144  131  
-21.4924  10.2248  58.5315  44  74  82  
-14.1876  6.92287  40.0121  43  89  108  
-4.93901  9.28172  53.0034  144  145  135  
-4.50738  9.23213  52.72  93  95  83  
2.43413  9.09332  51.8352  97  96  86  
3.79453  9.00676  51.3307  97  94  82  
-17.0927  8.88459  50.3486  48  84  98  
-5.23512  9.45891  53.5382  108  110  99  
-3.69397  7.9684  45.0891  108  109  100  
3.49065  9.11839  51.5169  146  145  132  
-21.7208  10.6078  59.6521  29  56  65  
6.73155  9.1266  51.0769  84  82  71  
3.77575  9.39202  52.1397  75  71  60  
7.01589  9.26881  51.4188  156  156  142  
6.21116  9.33038  51.3377  99  96  86  
-10.018  10.0372  54.951  78  77  69  
-1.3104  9.07858  49.6901  154  153  144  
-8.43245  10.3644  56.2127  77  78  70  
-7.0332  8.39319  45.1988  140  141  131  
7.2418  9.78374  52.4617  83  81  72  
8.01085  9.83412  52.7145  81  78  65  
-17.5474  9.9577  53.1308  52  89  99  
-5.7557  10.3106  54.992  72  74  65  
-5.51394  10.3348  55.1142  74  75  66  
-4.18419  10.4101  55.4862  72  73  67  
-1.35297  10.3265  55.006  68  68  62  
-0.626017  10.1868  54.2657  79  75  67  
-0.267068  8.73805  46.5236  151  149  138  
6.82767  10.1487  53.9511  84  80  72  
-4.23818  8.95748  47.349  124  124  114  
-3.804  8.96488  47.3803  127  126  119  
7.25544  11.4509  60.4881  149  146  137  
-8.78303  9.4625  49.6306  84  85  76  
-9.18152  10.9914  57.6742  86  87  75  
-0.560452  8.96813  47.1582  107  103  91  
7.15509  10.4282  54.53  94  92  83  
9.12844  11.7927  61.7413  146  144  134  
2.43666  10.6596  55.3541  74  71  62  
-5.7411  10.9541  56.5396  143  143  133  
6.89262  10.7109  55.1159  149  149  139  
-10.1877  11.3916  58.3672  144  145  136  
-9.65205  11.7912  60.3605  145  147  135  
-5.13495  11.3503  58.0809  135  136  126  
-0.51569  11.0406  56.4578  145  144  132  
6.58754  10.8532  55.4095  79  76  66  
-9.38041  10.0894  51.241  88  89  79  
-5.31992  9.57169  48.6138  101  102  92  
-0.198434  9.49976  48.1784  78  73  64  
-8.93278  10.1981  51.3829  84  82  74  
-8.32285  10.1276  51.0272  89  92  79  
-9.48609  12.125  61.0921  106  107  96  
7.02445  9.52262  47.8177  147  143  133  
-5.89293  11.6106  58.0597  143  141  131  
-5.55202  11.6476  58.2353  148  147  135  
-1.96616  11.669  58.2853  154  154  142  
3.01069  11.159  55.7112  154  152  143  
7.04741  10.963  54.6899  73  69  61  
7.49225  10.997  54.8493  150  146  137  
-9.8613  12.5563  62.284  143  143  131  
-0.878314  9.88319  48.9736  137  133  124  
-4.47128  12.0678  59.3848  93  92  80  
-1.38398  10.0889  49.6095  123  121  111  
-0.747786  11.7331  57.7134  71  69  59  
-0.303296  11.7567  57.8205  148  148  137  
-0.0486062  10.036  49.335  89  89  78  
7.0392  11.601  56.9583  114  112  102  
-14.8239  9.02083  44.2013  17  32  40  
-8.96271  10.5013  51.3306  141  140  130  
-7.62051  9.21325  45.0024  71  70  61  
-8.6805  11.4126  55.8764  79  80  73  
-6.18173  12.1  59.1294  84  83  73  
-5.39992  12.1896  59.5463  66  65  52  
-2.00543  12.194  59.5158  80  80  70  
-0.455807  8.84295  43.1332  88  86  75  
3.00965  11.9063  58.0625  82  79  71  
7.7913  11.441  55.7613  74  72  62  
8.74335  11.7361  57.1609  82  78  66  
-9.62387  11.0327  53.4853  75  73  65  
-8.63486  10.9245  52.9576  73  71  66  
-3.05432  7.96746  38.593  109  108  100  
4.34282  11.8515  57.3577  72  68  62  
-6.76032  9.35657  45.017  133  135  124  
-4.87446  10.6085  51.0341  135  135  123  
-5.02162  12.5818  60.53  72  71  62  
-4.54309  12.6841  61.0052  148  150  139  
-0.723578  12.4308  59.7527  135  134  121  
4.09696  11.9961  57.6286  154  152  143  
-8.31389  11.0377  52.7251  143  144  133  
-1.29027  12.6739  60.4706  138  136  123  
7.82406  11.8788  56.6086  153  151  139  
-20.6644  11.7534  55.8584  49  83  92  
-4.7809  10.9158  51.7331  138  138  127  
-20.4323  13.0697  61.7332  42  89  101  
-9.82365  11.7054  55.0777  147  147  138  
-9.11563  11.2901  53.1565  72  73  63  
-4.30359  9.55944  44.9643  77  78  68  
-4.64776  13.2753  62.4415  108  106  97  
-1.0163  9.1335  42.9619  105  105  92  
0.111245  10.8834  51.1462  105  105  94  
7.63021  12.1616  57.1147  111  108  100  
-10.1726  11.9031  55.6014  109  110  100  
-8.96496  11.7755  55  105  106  95  
-8.1661  11.537  53.8988  80  80  67  
-6.45827  13.7515  64.2132  134  134  122  
-5.25442  13.3194  62.2142  136  135  125  
-4.03265  9.95869  45.8274  67  66  54  
2.26664  11.261  51.757  101  98  87  
-4.28702  11.72  53.5529  78  78  63  
-6.44881  14.585  66.1739  83  82  70  
-4.96862  11.8565  53.8052  144  145  132  
-18.0576  12.07  54.5818  45  87  101  
6.41879  11.5887  52.0925  92  91  82  
7.0293  12.1879  54.9107  150  149  140  
-8.91273  11.1467  49.5352  81  82  73  
-10.2946  15.3048  68.0464  89  91  82  
-1.68342  14.6741  65.164  74  73  65  
6.80965  11.8703  52.6178  100  97  88  
7.57274  12.5557  55.7736  69  67  57  
8.45464  13.4764  59.7833  67  65  55  
-9.82841  12.9569  56.836  79  80  70  
-0.0059023  11.8915  52.1145  75  73  63  
-16.1975  10.9069  47.6603  20  48  60  
-5.33498  12.8518  55.9503  71  72  60  
-4.23141  12.9033  56.1539  77  78  64  
-1.90218  14.6977  63.9849  149  148  138  
-0.210279  12.5881  54.7498  143  141  130  
3.3862  12.3405  53.6409  90  86  81  
-4.60518  13.0716  56.5085  139  142  128  
-1.42308  14.9597  64.675  149  149  139  
4.07711  12.5135  54.0159  77  74  67  
-0.0257543  15.2799  65.5889  87  85  75  
3.2266  14.6835  63.0213  83  81  71  
-1.83515  13.0124  55.497  83  82  74  
-1.05289  11.3236  48.2654  150  150  139  
-0.727347  13.0793  55.7609  81  81  71  
2.60212  12.9887  55.3335  148  148  136  
3.62391  15.4191  65.6984  152  151  141  
3.92131  15.3936  65.5871  150  149  139  
8.54565  14.4953  61.7485  153  151  141  
-22.6399  15.3028  64.9721  13  30  45  
-11.434  14.6331  62.0218  80  81  70  
-10.6601  14.294  60.5999  70  71  62  
-4.89973  12.6075  53.505  144  144  134  
-4.43508  13.6217  57.7147  134  132  122  
3.89569  12.9864  54.9527  91  89  81  
-13.0889  18.2441  76.8131  133  136  125  
-9.84009  14.14  59.57  135  139  125  
-8.3045  12.3361  51.9323  132  134  123  
-1.42778  13.3881  56.3411  79  80  68  
2.3733  13.0798  55.0128  88  87  77  
2.88991  11.1014  46.6855  79  76  67  
7.43215  14.7444  62.0113  69  66  59  
8.22462  15.4176  64.7908  73  70  61  
8.54338  14.8467  62.4198  75  71  62  
8.84618  14.8701  62.5122  69  67  58  
-6.13369  14.3593  60.0419  144  145  134  
2.90997  13.4792  56.2992  78  76  67  
-26.8417  17.7823  73.9325  11  42  54  
-10.6151  14.38  59.8172  126  127  117  
-1.48086  12.8202  53.3217  145  144  131  
-8.94307  12.5162  51.7087  67  71  63  
-4.94042  14.5706  60.1363  146  143  134  
2.69029  13.8549  57.126  152  150  136  
3.8175  13.6445  56.2566  146  142  133  
-5.62654  13.1827  54.1848  73  72  60  
-5.75909  15.3351  63.0505  78  78  65  
3.6892  16.0939  65.9811  152  149  138  
3.39958  13.9641  57.2034  152  148  139  
6.67778  13.4743  55.1831  153  151  141  
7.64318  13.5275  55.3837  149  148  136  
-18.9692  13.2576  54.3483  12  36  45  
-4.84154  13.6514  55.7184  82  80  72  
-4.52938  14.7725  60.2022  94  92  83  
-1.54688  14.6073  59.4981  72  72  61  
-0.0369496  14.3404  58.4079  88  85  78  
-15.1618  10.9804  44.6359  6  31  39  
-10.5911  16.0645  65.0634  142  141  130  
-2.04092  17.0143  68.9289  148  148  135  
-0.849238  13.6144  55.1748  90  88  77  
2.18156  12.3593  49.9873  90  89  78  
3.07908  12.2612  49.5854  88  85  76  
8.1709  13.869  56.0596  146  143  136  
-5.78375  15.0886  60.7418  142  143  132  
-4.40613  15.1795  61.0814  128  128  117  
4.09255  14.3412  57.6453  84  81  72  
-11.2137  15.5156  62.1332  141  146  134  
