1160
-1.76502  9.47889  22.0826  43  95  53  
-0.787784  9.15305  21.3299  4  43  8  
-0.687762  8.64571  20.1431  29  92  40  
0.253465  7.50245  17.4681  0  40  0  
0.398442  7.8849  18.3712  64  128  74  
0.785686  6.83603  15.9164  46  148  69  
0.984639  7.14519  16.6556  58  152  77  
0.905503  6.62744  15.4134  66  171  91  
1.03739  6.23  14.4911  10  77  16  
1.13179  6.66698  15.5279  0  56  0  
1.51176  6.22963  14.5107  85  131  84  
1.7471  5.75023  13.3941  24  67  22  
1.63035  5.36711  12.4844  45  120  55  
2.06986  5.61676  13.0937  41  118  54  
1.84294  4.31609  10.0336  49  166  76  
-3.00496  9.87898  22.9868  15  47  20  
-2.60713  9.58643  22.2928  24  140  59  
-1.70683  8.87943  20.642  37  129  60  
-1.48492  8.62065  20.0379  28  148  66  
-1.04396  8.55149  19.8855  33  115  53  
-0.913402  8.3037  19.2977  18  129  45  
-0.602943  8.35593  19.4469  29  93  40  
-0.0404551  7.84107  18.2432  9  120  36  
0.378454  7.92597  18.4499  34  111  49  
0.407814  7.65852  17.8246  8  48  10  
0.525532  7.33976  17.0712  54  159  78  
1.10705  6.74364  15.6926  25  105  37  
1.85986  4.29017  9.9633  51  170  78  
-2.45867  9.94909  23.1501  4  53  10  
-2.37154  9.6918  22.5386  49  118  64  
-2.20509  9.48818  22.0528  24  121  48  
-2.1825  9.55234  22.192  11  111  32  
-1.30251  8.73635  20.2982  7  92  23  
-0.926558  9.19171  21.3904  15  131  47  
-0.777323  8.20013  19.0469  33  152  68  
-0.742781  8.35743  19.423  19  77  29  
0.138371  8.16214  18.9845  40  139  63  
0.251719  7.42381  17.2434  23  119  44  
0.374094  7.64895  17.7771  66  141  80  
0.746136  6.64812  15.4401  31  106  43  
0.907981  7.04968  16.3931  15  69  21  
0.983797  6.52664  15.1636  18  88  24  
-2.51754  9.36023  21.7035  16  108  42  
-2.13064  9.03839  20.964  15  79  29  
-2.07111  9.34485  21.6775  12  107  32  
-1.44049  9.05735  21.0274  16  126  48  
-1.15524  8.70169  20.1983  9  87  28  
-1.15695  9.47758  22.0272  19  107  39  
-0.310638  7.81641  18.1344  39  132  61  
-0.245275  8.11284  18.8341  30  121  49  
-0.139337  7.83451  18.1937  34  101  47  
0.0569188  8.10382  18.8306  12  126  42  
0.603615  7.30351  16.9706  15  92  32  
0.657789  7.42588  17.2645  55  156  81  
0.99571  7.39587  17.194  10  95  28  
1.07238  6.84785  15.9063  43  143  65  
1.21898  6.74578  15.6754  82  175  102  
1.58179  6.66416  15.4843  29  86  29  
1.4943  5.66937  13.1546  29  87  32  
1.72713  6.17805  14.3488  38  94  41  
1.85122  4.18721  9.70369  11  134  43  
-2.0533  8.95873  20.759  19  95  37  
-1.73124  8.9684  20.8009  28  118  53  
-1.38969  8.85153  20.5284  0  109  32  
-1.36004  8.81522  20.4439  19  136  59  
0.882744  6.80625  15.7869  7  81  15  
0.989641  5.8056  13.441  57  155  78  
1.53464  6.07852  14.1032  50  109  52  
1.58136  5.75239  13.3421  51  116  57  
-2.63384  9.37212  21.6907  5  92  22  
-2.53514  9.80449  22.7163  16  66  27  
-2.35512  9.4776  21.9561  29  80  41  
-2.10441  9.9186  23.0138  18  113  43  
-0.00612989  7.97431  18.4849  21  128  50  
0.24118  8.022  18.6134  14  109  36  
0.343942  8.00133  18.5563  64  166  90  
0.35139  7.32564  16.9743  48  113  61  
0.497902  8.25709  19.17  37  137  63  
0.592225  7.78714  18.0657  33  82  40  
0.606937  7.25484  16.8172  48  139  71  
0.700303  6.57398  15.2239  16  61  16  
0.787514  6.83576  15.8409  0  43  0  
0.988632  6.83668  15.8504  5  70  11  
1.11704  6.14863  14.2333  18  78  19  
1.36768  5.79043  13.4055  36  115  49  
1.57626  5.32473  12.3265  21  97  28  
-2.73648  9.43439  21.8253  26  84  34  
-0.892277  8.02634  18.563  0  98  19  
0.111383  7.82337  18.125  42  153  72  
0.208057  8.04873  18.6493  31  128  55  
0.243186  8.49275  19.7012  49  152  76  
-2.04754  9.15416  21.1642  0  38  0  
-1.66688  9.2568  21.4323  12  77  25  
-1.1975  8.4824  19.6136  8  77  21  
-0.561775  8.67251  20.0734  31  74  36  
-0.218903  7.75796  17.9392  15  107  38  
0.752038  7.4381  17.2198  59  136  77  
0.868776  6.71402  15.5206  59  166  87  
0.867774  6.18165  14.2766  62  159  83  
1.00891  6.78041  15.6897  0  50  2  
-2.99334  10.2  23.5813  16  91  30  
-2.76898  10.473  24.2258  7  56  13  
-1.96785  9.00063  20.7786  17  128  49  
-1.34036  9.13923  21.1092  12  132  50  
-0.517397  7.53835  17.3882  29  87  37  
0.211841  7.6503  17.6889  22  129  53  
0.332136  7.368  17.0249  9  74  17  
0.527135  7.47906  17.299  5  92  24  
0.764482  7.10616  16.4244  13  77  20  
0.727974  6.69169  15.4543  22  84  27  
0.960579  6.44824  14.8889  10  97  23  
-1.54812  8.7248  20.1296  20  127  51  
-1.50039  9.05101  20.9049  0  89  17  
-1.16813  9.1144  21.0516  35  145  67  
0.0269776  8.37808  19.3615  0  68  4  
0.578136  7.85845  18.1723  4  71  17  
0.734748  6.54051  15.0819  9  84  18  
0.985892  6.84655  15.8138  7  85  20  
-2.81524  9.53124  21.9681  25  96  41  
-2.123  10.11  23.3393  37  119  58  
-1.51511  8.88378  20.4884  0  54  7  
-1.54494  9.47167  21.8806  0  93  19  
-0.985391  8.9237  20.5998  2  103  28  
-0.859877  9.56212  22.1001  0  117  35  
-0.801597  9.06225  20.9306  26  125  51  
-0.686259  8.6276  19.9039  24  123  50  
0.484607  7.79312  17.9952  59  167  91  
0.636013  7.94433  18.3458  0  38  0  
0.789577  6.72449  15.5013  36  146  64  
0.917569  6.93167  15.9889  27  135  54  
0.89169  6.10083  14.0491  41  140  60  
-3.16601  10.0646  23.1915  35  98  46  
-1.5877  9.119  21.0135  28  135  60  
-0.680226  8.23463  18.9669  0  58  7  
0.212269  8.09773  18.6846  21  117  42  
0.636735  7.11434  16.3819  0  55  1  
0.679043  7.10029  16.3648  62  167  91  
2.06854  4.78957  11.0375  47  168  76  
-2.56305  9.65118  22.2041  17  84  37  
-2.38166  9.53732  21.9512  6  60  16  
-2.46022  10.1143  23.2952  20  46  24  
-1.11208  8.89151  20.4774  0  56  0  
-0.351181  8.80257  20.2902  16  132  49  
-0.0152914  7.28223  16.7553  0  64  6  
0.333758  7.26977  16.7262  14  76  23  
-1.27084  8.92659  20.5203  20  137  55  
-0.949872  8.52522  19.612  20  117  44  
-0.761797  8.47651  19.5177  17  117  44  
0.0403613  7.9704  18.3467  25  141  58  
0.529693  7.43345  17.1047  13  103  33  
0.654332  7.96264  18.3456  43  141  69  
0.806319  7.55967  17.4046  41  150  71  
0.909796  7.40572  17.0403  23  133  52  
0.834664  5.90836  13.5586  31  136  54  
-2.26312  10.0594  23.1252  6  63  21  
-2.09917  9.50676  21.8398  15  124  46  
-1.66852  9.43471  21.6936  14  95  32  
-1.54638  9.48786  21.8264  2  73  15  
-0.765066  8.64057  19.8692  15  101  31  
-0.654723  7.97415  18.3044  0  75  6  
-0.14026  7.96422  18.2983  18  108  39  
-0.0518905  7.65673  17.5885  21  115  43  
-0.0159318  7.4923  17.2008  24  125  45  
0.0810288  7.0556  16.1856  31  143  61  
-3.0048  9.92631  22.7869  10  56  15  
-2.47534  9.8467  22.6136  30  118  50  
-2.41307  9.71796  22.3064  28  111  51  
-2.45397  9.97116  22.9005  41  96  52  
-1.37734  8.45647  19.3901  0  107  27  
-1.21848  8.67988  19.9231  29  124  54  
-1.00696  8.40696  19.2938  0  38  1  
-0.263125  7.84789  18.0131  0  42  0  
-0.219241  8.17479  18.7757  4  95  26  
-0.180143  7.87152  18.0675  1  102  26  
0.286693  7.46648  17.1412  21  132  55  
-3.08896  10.1491  23.2786  24  114  50  
-2.45552  9.79702  22.4574  14  100  36  
-2.02023  9.49698  21.787  0  77  8  
-1.7207  9.19477  21.1006  40  123  60  
-1.14301  8.58703  19.6907  0  41  0  
-1.14858  8.95474  20.5472  19  132  51  
-0.994002  8.59566  19.7197  0  43  0  
-0.678357  8.01076  18.3547  0  45  0  
-0.662134  7.98774  18.3017  8  83  17  
-0.297296  8.12829  18.6512  0  57  2  
-0.162025  7.91237  18.1534  29  136  58  
-0.121836  8.09888  18.5745  37  152  67  
-0.0660164  7.68405  17.6187  40  153  69  
0.698141  6.57966  15.0808  43  153  73  
-2.64037  9.9669  22.8378  0  56  6  
-1.82714  9.42558  21.6024  1  79  19  
-1.12063  9.24598  21.1985  0  50  1  
-1.00899  8.55728  19.6039  0  65  6  
-0.629628  7.94277  18.1812  15  128  46  
-0.669906  9.30273  21.3487  30  146  63  
-0.239335  7.9711  18.2632  32  145  63  
-0.0829176  7.78484  17.8428  24  139  53  
-2.86101  9.42313  21.5473  9  93  31  
-1.78977  9.43973  21.625  19  128  52  
-1.50099  9.18622  21.0319  0  79  7  
-0.477182  8.24109  18.8762  38  154  74  
-0.307471  8.08139  18.5  3  104  28  
-0.170865  8.28175  18.9696  20  132  49  
-2.79951  9.47499  21.6463  0  50  3  
-2.36485  10.0992  23.1207  14  95  34  
-1.94685  9.12987  20.8639  4  109  32  
-1.85088  9.24314  21.1336  19  111  44  
-1.14841  9.01063  20.6282  26  140  61  
-1.0384  8.74538  19.9997  1  102  27  
-0.550905  8.20739  18.7638  4  86  16  
-2.89408  9.68108  22.0987  0  70  9  
-2.58278  9.65246  22.0534  0  98  23  
-2.44806  9.79946  22.3801  0  35  0  
-2.25679  9.77916  22.3542  12  96  32  
-2.08592  9.44518  21.5877  0  41  0  
-1.98514  9.53272  21.7784  0  41  0  
-0.695682  8.35429  19.0925  0  102  25  
-0.554294  7.70991  17.5884  19  128  48  
-3.37728  10.3684  23.6851  6  119  40  
-3.0119  10.4393  23.8474  10  70  18  
-2.29056  9.67608  22.0973  26  139  58  
-3.11811  10.2072  23.2832  23  144  60  
-3.05298  10.1421  23.1341  0  100  24  
-2.72883  9.94541  22.6836  15  125  46  
-2.34263  9.80309  22.3575  27  141  58  
-2.09056  9.7484  22.2424  20  138  56  
-1.58751  9.01879  20.5709  7  89  21  
-0.526548  8.26897  18.8616  39  157  72  
-2.99837  9.68421  22.0449  39  155  74  
-2.92286  9.93579  22.6303  3  108  26  
-2.84589  9.73771  22.1774  16  130  47  
-2.53089  9.01593  20.5079  0  46  4  
-2.79398  10.0786  22.9781  0  53  0  
-2.07643  9.5123  21.6716  13  121  41  
-1.24194  9.49699  21.6662  9  112  33  
-0.711353  8.43542  19.2344  37  159  75  
-0.591902  7.52881  17.1336  17  139  55  
-2.35755  9.76326  22.2357  22  132  53  
-2.14687  9.46264  21.5382  11  113  36  
-3.17715  9.95347  22.6292  0  42  0  
-2.57949  10.3019  23.4458  7  87  20  
-2.13715  9.52497  21.6708  0  82  8  
-0.259017  8.09495  18.4202  21  141  56  
-3.28324  10.3898  23.6145  9  80  23  
-2.81752  9.84016  22.3499  0  66  1  
-2.38663  9.6009  21.8142  0  80  11  
-1.07894  8.95136  20.36  0  111  27  
0.897422  6.16773  13.9873  36  140  60  
-2.60711  10.0462  22.8197  10  125  44  
-2.43155  9.5621  21.6958  22  138  59  
-0.560273  7.73167  17.5329  18  139  56  
1.97792  4.71081  10.6925  57  175  86  
-2.61089  9.10831  20.624  18  121  45  
-2.64092  9.3445  21.1709  3  108  27  
1.58216  3.81911  8.62351  14  90  27  
1.84906  4.35554  9.83804  48  165  76  
1.55935  4.78525  10.792  50  153  74  
2.05427  5.85801  13.25  39  141  62  
1.43144  4.97172  11.19  57  124  63  
1.45442  4.91744  11.0464  77  171  98  
1.65103  3.84653  8.62532  57  170  86  
1.75762  3.91071  8.77492  46  165  76  
1.68421  5.16787  11.603  66  158  83  
1.78957  5.25016  11.7947  54  137  68  
1.6699  4.86791  10.9242  19  84  25  
2.04483  4.82362  10.8392  35  150  66  
1.98161  4.43978  9.96035  48  157  75  
-0.452734  8.9673  20.1277  2  123  39  
-0.182583  8.28476  18.6142  9  126  42  
1.20896  7.82226  17.5856  11  72  14  
1.02129  6.54763  14.6848  70  154  86  
1.29895  7.18559  16.1468  20  89  37  
1.90972  6.66015  14.9731  55  104  57  
1.60475  4.98454  11.1675  16  72  15  
1.80189  4.10524  9.19016  11  114  34  
1.04411  7.02527  15.7629  16  75  21  
1.02344  6.46956  14.4887  24  71  25  
1.73838  5.77232  12.9411  77  172  98  
1.79068  5.74911  12.8887  72  163  90  
1.78407  5.28974  11.8515  37  95  40  
1.65463  4.76689  10.6661  63  159  87  
1.61426  4.37268  9.77644  43  143  68  
0.897294  7.32462  16.416  19  88  29  
1.63914  5.19961  11.6319  48  110  52  
2.03924  6.33927  14.2278  46  110  47  
1.64608  4.36713  9.7549  51  157  78  
1.7189  3.92237  8.76042  54  166  84  
1.74921  3.93412  8.78696  0  46  8  
1.65655  3.68949  8.2349  0  60  4  
1.0163  6.85056  15.3406  37  89  37  
1.81414  6.36333  14.256  32  71  31  
1.63334  5.02279  11.2229  85  178  101  
1.66356  4.98614  11.1403  98  175  110  
1.55588  4.53533  10.12  75  157  91  
2.0808  5.36616  12.0131  44  153  73  
1.85907  4.5701  10.2127  66  170  93  
1.7624  4.04186  9.02172  26  119  44  
-0.895691  8.61575  19.2739  28  152  67  
-0.0832298  7.73623  17.2808  37  150  68  
1.20196  7.19572  16.1109  68  163  91  
1.51441  6.67643  14.9346  111  193  131  
2.06931  7.29768  16.3704  92  180  111  
1.78347  5.52908  12.3579  13  55  11  
1.54958  4.74151  10.5746  84  168  99  
1.96973  5.67707  12.7088  75  166  94  
1.59866  4.31418  9.6177  17  96  34  
2.24095  5.15064  11.5272  4  57  9  
-0.141953  8.19316  18.3155  45  160  79  
-0.0953035  8.06555  18.0123  36  148  68  
0.222366  8.30897  18.5672  12  124  40  
1.62913  5.04647  11.2555  70  147  80  
1.62312  4.88605  10.8948  76  143  83  
1.77669  4.87005  10.8639  20  84  25  
-0.55584  7.69391  17.1704  20  132  51  
-0.196535  8.65847  19.3435  42  157  76  
1.49742  4.82615  10.7452  75  139  80  
1.92162  5.35328  11.9456  31  106  44  
1.7804  4.93099  10.9909  64  141  80  
2.09493  5.5533  12.4012  58  156  82  
-0.0441891  7.82586  17.4426  0  104  23  
0.978743  7.21896  16.1119  61  113  63  
1.01721  6.96249  15.529  80  150  89  
1.144  6.96999  15.553  77  154  93  
1.55291  5.17011  11.5071  62  138  73  
1.56222  4.77297  10.6161  79  133  79  
1.71382  4.9479  11.0188  28  86  32  
1.65717  4.71285  10.486  22  71  24  
-0.647331  9.18904  20.4977  29  143  64  
-0.311344  8.40067  18.7224  0  37  0  
-0.163966  8.03472  17.8945  27  121  54  
-0.138723  8.45038  18.8337  19  116  44  
0.917773  7.39087  16.4829  63  130  74  
1.044  7.3905  16.4896  31  66  28  
1.18882  7.6507  17.0891  26  83  31  
1.20552  6.74742  15.0397  39  86  47  
1.77021  5.93662  13.2272  52  123  61  
2.01278  4.98569  11.1038  59  169  89  
-0.77361  8.83467  19.6858  27  143  64  
-0.54157  7.83659  17.4193  0  81  17  
-0.33593  8.17291  18.1875  49  129  69  
-0.265137  8.32672  18.54  17  101  38  
-0.124443  8.11495  18.0578  27  98  44  
-0.0814066  8.01532  17.843  11  83  25  
0.973026  7.09438  15.7963  26  66  24  
1.01556  5.88219  13.069  81  169  104  
1.54082  5.35811  11.9127  81  144  92  
1.58215  5.37509  11.9508  33  79  32  
1.7722  5.70354  12.6926  32  96  35  
1.72466  5.30221  11.7929  30  71  27  
1.82873  4.87792  10.8468  7  74  17  
-0.648998  9.01222  20.0652  24  125  54  
-0.581671  8.34117  18.5556  25  121  52  
-0.40274  8.45545  18.8197  0  47  0  
-0.287225  8.5322  18.9828  0  42  7  
-0.912016  8.02693  17.8125  3  123  39  
-0.857551  8.81611  19.5911  14  113  40  
0.097714  7.26834  16.1273  30  133  54  
0.248757  7.55957  16.7851  54  164  86  
0.289161  7.62087  16.9219  44  153  76  
1.07736  7.45931  16.5913  51  107  57  
1.20341  7.2651  16.1717  21  67  27  
1.30125  7.66958  17.0851  57  152  82  
1.53937  5.30077  11.7628  27  68  24  
1.58044  5.25816  11.6674  38  86  38  
2.09819  6.75995  15.0543  92  173  104  
1.52071  4.60371  10.1988  49  98  49  
1.62308  4.71238  10.4466  31  99  39  
1.91806  5.47384  12.1611  83  172  103  
1.75569  4.8304  10.7156  59  141  76  
1.89283  4.90472  10.887  4  61  8  
1.78753  4.60107  10.2072  0  63  1  
1.78213  3.8616  8.55573  42  107  56  
-0.839409  8.79214  19.52  0  67  9  
-0.666162  9.04466  20.1016  8  77  25  
-0.0272353  8.08808  17.9572  34  147  63  
1.01611  8.06828  17.9456  46  111  57  
1.75964  4.89149  10.8424  19  87  28  
1.91067  4.86145  10.7803  57  169  88  
2.02106  4.61379  10.2358  39  155  71  
0.720752  6.98515  15.4814  69  162  90  
1.04316  7.10424  15.7613  21  59  22  
1.16362  7.17275  15.9215  11  59  17  
1.65534  5.88196  13.0451  50  86  47  
1.81974  5.95757  13.2201  92  171  103  
1.71754  5.56404  12.3349  33  91  35  
1.71542  5.2947  11.7332  39  103  44  
1.8751  5.66433  12.5648  53  111  57  
1.85613  4.90436  10.8663  44  150  72  
-0.534477  8.90098  19.7542  0  40  0  
-0.42773  8.43398  18.6957  0  84  13  
0.168529  7.12569  15.7662  29  121  48  
1.47675  5.09211  11.2599  82  150  90  
1.53103  5.03461  11.1317  66  148  78  
1.91726  5.58253  12.3707  84  160  99  
-0.925231  9.17865  20.3368  20  121  49  
-0.902384  9.40035  20.8397  5  54  14  
-0.0398311  8.59366  19.043  21  113  42  
0.10867  7.24104  16.0086  39  112  52  
1.07538  7.01894  15.5571  54  96  57  
1.10781  6.87557  15.2234  38  104  49  
1.14448  6.99486  15.4892  47  120  60  
1.59514  5.73629  12.6908  71  135  80  
1.56917  5.3631  11.8589  78  143  84  
1.60705  5.19321  11.4803  98  173  108  
1.71172  5.3357  11.8033  83  162  97  
1.87171  5.70916  12.642  88  171  104  
1.97746  5.64711  12.5093  85  166  102  
1.6111  4.51178  9.96138  78  169  101  
-0.846993  8.39532  18.551  20  82  29  
-0.496036  8.28773  18.3286  7  104  29  
-0.483415  8.52541  18.8656  37  150  70  
-0.219329  7.84151  17.3365  11  88  27  
0.594053  7.2998  16.1395  42  140  66  
0.908574  7.26943  16.0865  15  57  15  
1.05437  7.24849  16.0472  35  92  42  
1.81422  5.46819  12.0934  83  146  91  
1.72518  4.6944  10.3638  48  96  54  
1.7877  4.38881  9.68748  35  147  64  
1.71859  4.01734  8.85949  33  142  59  
2.03484  4.47493  9.88868  21  74  31  
-0.287803  8.37598  18.5166  26  109  45  
1.11504  7.04886  15.5886  66  132  77  
1.21982  6.66387  14.7319  90  140  96  
1.72597  4.72277  10.4175  80  167  103  
1.97838  5.17202  11.4281  46  156  74  
1.87361  4.23489  9.34024  14  77  25  
-0.508479  8.16659  18.0269  17  104  30  
-0.267868  8.80258  19.456  14  104  35  
0.300684  8.12273  17.9621  48  153  79  
0.292139  7.77909  17.1825  63  166  90  
0.757345  7.45238  16.4642  19  73  20  
0.74355  6.9023  15.2279  41  109  54  
0.889443  6.46223  14.2508  12  51  12  
1.05056  6.14191  13.5458  85  172  106  
1.63351  5.53876  12.2173  62  112  60  
1.69296  5.02775  11.0863  33  75  34  
1.85454  5.43412  11.9957  59  144  77  
-0.953553  9.39601  20.7463  13  68  18  
-0.128282  8.20435  18.1109  21  103  41  
-0.099369  8.22013  18.1377  38  143  65  
0.300923  7.29792  16.0918  34  118  52  
1.06461  7.00833  15.4635  22  61  23  
1.28113  7.22207  15.9526  44  99  52  
1.57471  6.86203  15.1594  101  180  120  
1.58588  5.72593  12.622  90  154  99  
1.74263  6.07874  13.418  61  123  66  
1.59559  5.46085  12.0332  95  168  104  
1.81163  5.695  12.5648  31  74  27  
2.34362  5.32577  11.7602  33  150  66  
1.77155  3.94613  8.68094  60  125  70  
-0.305606  7.98783  17.5986  12  77  28  
-0.308022  8.87301  19.5774  21  110  45  
0.250335  7.72429  17.0225  53  155  80  
0.278953  7.80687  17.2133  42  136  65  
0.687381  7.25863  15.9976  15  58  15  
0.79456  7.16719  15.7949  32  105  48  
0.967684  7.90743  17.46  69  158  90  
0.884507  7.1031  15.6598  23  67  24  
1.69267  5.87531  12.954  76  157  91  
1.97444  6.46948  14.2803  58  128  63  
1.86216  5.81328  12.8162  58  134  71  
1.69744  4.76673  10.4867  67  158  89  
1.74732  4.66129  10.2527  22  114  38  
1.78319  4.42238  9.72673  9  96  21  
1.72566  4.15265  9.1276  53  170  81  
-0.94538  8.90074  19.6125  0  69  10  
-0.815757  9.11617  20.0987  29  81  37  
0.569236  7.17296  15.7935  7  56  10  
0.676565  7.2842  16.0399  13  69  18  
0.828508  7.25935  15.9921  59  152  83  
1.59033  5.4696  12.0309  97  178  109  
1.7229  5.09456  11.2044  70  147  85  
1.83698  5.26809  11.5947  56  105  59  
1.85342  4.26878  9.38139  32  150  66  
-0.13596  7.96513  17.5249  0  54  3  
0.12251  7.50778  16.5055  0  48  1  
0.273388  7.46305  16.4215  3  55  7  
0.433157  7.48293  16.4655  21  110  41  
1.07915  6.8921  15.1714  55  121  68  
1.45789  4.88343  10.7164  54  120  58  
1.91175  5.29767  11.6499  60  158  86  
1.61999  4.23261  9.28388  44  154  70  
-0.559558  8.81906  19.3971  0  54  5  
-0.410734  8.30233  18.2465  0  28  0  
-0.302178  8.56954  18.8455  27  110  48  
0.207992  7.9501  17.484  51  151  81  
0.470302  7.70871  16.9578  9  67  16  
0.835134  7.68919  16.9146  40  65  37  
0.988733  7.00626  15.4036  86  149  99  
1.01697  6.91396  15.1993  54  108  63  
1.07866  6.83459  15.017  36  86  41  
1.60049  5.62307  12.3545  82  162  96  
1.76099  4.46208  9.78817  62  141  77  
1.14241  6.93472  15.2385  8  75  18  
1.14621  6.68219  14.6734  89  178  113  
2.03503  6.12989  13.4771  43  101  49  
-0.929731  8.79845  19.3084  16  88  32  
-0.546784  8.6411  18.9698  9  95  30  
-0.496287  9.00318  19.7778  36  152  69  
-0.423157  8.03745  17.6218  0  76  6  
0.234147  7.43344  16.3047  2  74  16  
0.376816  7.13418  15.6443  24  113  45  
0.492773  7.34882  16.1253  51  130  67  
0.519456  7.47076  16.3945  51  136  69  
0.559385  6.94994  15.2309  11  64  15  
0.751444  7.58992  16.6727  71  143  85  
0.847426  6.98187  15.3221  68  138  79  
1.82809  6.33764  13.9246  76  159  91  
1.89851  5.78796  12.7027  89  177  109  
1.90722  5.33791  11.7074  74  162  93  
-0.958497  8.77958  19.2582  36  154  71  
-0.67655  8.71702  19.1118  24  85  36  
-0.605588  8.75211  19.1891  19  69  29  
-0.493884  8.29452  18.1806  3  119  34  
-0.234738  8.29697  18.1942  23  125  49  
-0.212499  8.25915  18.1108  40  138  65  
-0.0835045  8.02712  17.5913  31  130  56  
0.272419  7.67234  16.817  28  67  31  
0.568067  7.54171  16.5365  69  147  87  
0.781233  7.38015  16.1874  38  77  38  
0.882376  7.85922  17.2602  20  68  22  
0.88582  6.87618  15.0684  41  85  43  
1.55338  4.63447  10.133  86  170  105  
1.7166  4.86217  10.6407  33  70  36  
2.05387  5.16007  11.3143  3  54  7  
2.24797  5.18296  11.3701  12  131  45  
1.97647  4.45436  9.75358  7  48  12  
-0.0335079  7.78874  17.0584  10  116  35  
0.150995  8.36578  18.3461  0  44  1  
0.167669  6.98274  15.269  36  136  64  
0.396382  8.17322  17.9296  21  64  22  
0.444683  8.30069  18.2108  12  81  27  
0.708133  7.69919  16.884  24  86  29  
0.681827  7.25722  15.8947  52  120  64  
1.0632  6.50209  14.237  23  91  34  
1.27996  6.02445  13.1839  119  189  135  
1.89899  6.23305  13.6625  82  169  94  
2.34238  6.17146  13.545  65  171  89  
1.83599  4.83367  10.5731  13  73  19  
1.86505  4.06551  8.88554  49  156  71  
-0.669212  9.27851  20.3314  35  99  49  
-0.54612  8.64521  18.9283  0  70  6  
-0.376823  8.70672  19.0809  55  112  63  
-0.305557  8.78117  19.2449  4  76  14  
0.34149  7.98798  17.4976  71  154  89  
0.494424  8.19489  17.9615  30  108  47  
1.21107  7.93297  17.3999  51  86  51  
1.09611  6.61013  14.4623  80  171  107  
1.41892  6.57804  14.4047  94  172  111  
1.67113  4.71946  10.3068  57  129  73  
1.91908  5.25345  11.4895  13  49  10  
1.93445  5.04464  11.034  0  63  3  
2.19401  5.16865  11.318  9  109  33  
-0.397293  7.60175  16.5944  0  93  15  
-0.272131  8.36251  18.2899  42  136  62  
-0.124567  8.67256  18.9888  31  107  47  
0.244357  7.87984  17.2362  19  98  37  
0.506293  8.17026  17.8913  47  108  55  
0.70723  7.11068  15.5371  36  91  41  
1.52792  5.58759  12.2044  77  150  88  
1.72595  6.07882  13.2982  86  162  99  
1.99293  6.71756  14.7192  46  78  41  
1.78498  5.42057  11.8474  43  82  45  
1.6588  4.63524  10.112  72  149  88  
-1.03992  9.29337  20.328  15  131  49  
-0.716648  8.59622  18.7871  42  100  54  
-0.59682  8.26608  18.0617  44  98  54  
-0.45932  8.67023  18.9498  17  130  48  
-0.418779  8.71225  19.0507  0  76  8  
-0.21496  8.5512  18.6967  21  86  35  
-0.0814256  7.88046  17.2068  0  47  0  
0.174772  7.39317  16.1366  35  126  58  
0.33541  8.2072  17.9486  59  145  77  
0.680398  7.06786  15.4361  22  77  30  
0.843154  6.98846  15.2616  76  148  90  
0.835227  6.82148  14.8945  39  83  41  
0.822071  6.44699  14.0649  49  86  52  
1.01321  6.89878  15.0713  63  116  70  
1.01995  6.19274  13.5124  94  185  120  
1.98233  7.09792  15.5514  31  70  33  
-0.983436  4.73859  10.3596  0  116  32  
-0.934264  9.07007  19.8108  0  53  0  
0.147086  8.18049  17.874  1  41  5  
0.375913  8.22403  17.9778  57  107  60  
0.388719  7.57773  16.5421  10  43  6  
1.0547  7.36878  16.1051  59  119  68  
1.00425  6.92479  15.115  75  143  85  
1.02719  6.61672  14.4381  62  129  75  
1.01542  6.40523  13.9671  83  168  103  
1.22334  6.87625  15.0152  40  87  48  
1.30578  6.19157  13.5101  88  148  101  
1.82174  5.40596  11.7941  69  142  83  
1.74283  5.03412  10.971  37  68  35  
-1.07142  9.1753  20.033  4  126  44  
-0.930866  9.31919  20.3488  33  86  44  
-0.706146  8.73944  19.068  0  42  0  
-0.445006  8.18626  17.8388  19  132  50  
-0.252508  8.02213  17.4947  0  42  1  
0.197396  8.28307  18.0834  8  66  17  
0.269318  7.65279  16.6922  73  148  91  
0.438331  8.0941  17.6765  37  113  51  
0.614724  8.1642  17.8305  53  116  63  
0.56989  7.01077  15.2697  62  148  83  
1.06441  7.62679  16.6577  40  88  43  
1.99069  7.01308  15.337  29  73  29  
1.58905  5.14153  11.192  52  86  50  
1.89594  5.96783  13.0245  71  147  85  
1.6846  4.97452  10.8302  27  88  35  
1.90477  4.61894  10.0582  56  155  79  
-0.650027  8.26545  18.0044  46  97  53  
-0.400562  8.14993  17.7514  36  149  69  
0.505354  7.83978  17.0951  16  56  14  
0.544506  7.54611  16.4509  72  143  85  
0.916045  6.97792  15.2047  85  140  90  
1.02575  7.30497  15.9293  80  142  88  
1.36426  6.16297  13.4233  68  150  89  
1.82364  6.35419  13.8556  99  186  116  
1.66063  5.10759  11.1126  97  180  115  
0.264562  7.52101  16.3666  15  62  16  
0.648536  8.08497  17.6252  21  73  27  
0.694261  7.59513  16.5438  29  75  30  
0.774809  6.98389  15.1974  46  126  64  
0.860514  7.54152  16.4337  58  148  81  
1.22876  7.06319  15.392  75  158  97  
1.98123  7.09861  15.4977  52  92  52  
1.92683  5.09817  11.0922  17  84  22  
1.69558  4.37968  9.51042  45  139  67  
-0.933149  8.99273  19.5804  35  124  59  
-0.545396  9.10161  19.8188  37  150  70  
0.184808  7.99966  17.4071  5  64  13  
0.25002  7.69314  16.7362  51  123  67  
0.453201  7.75366  16.8763  75  165  97  
0.552639  8.66739  18.8939  35  96  43  
0.727298  8.13678  17.7232  64  145  82  
2.00013  7.49964  16.4013  59  151  79  
1.77715  5.89365  12.8212  52  145  70  
1.65022  5.00896  10.8765  31  80  35  
1.68589  4.67834  10.152  28  99  35  
1.7413  4.69089  10.1842  33  139  56  
-0.300342  8.53039  18.5522  9  78  17  
-0.0902768  8.82669  19.2088  17  99  33  
-0.0433071  8.54382  18.59  40  153  72  
0.0235641  7.99539  17.3746  19  132  53  
0.896262  7.02986  15.2779  71  133  79  
1.07007  7.60568  16.5526  50  103  56  
1.02301  7.05026  15.3295  87  148  97  
1.81549  5.52299  11.9978  40  104  48  
-0.929548  8.92249  19.3838  0  54  0  
-0.188044  8.37824  18.1954  30  94  42  
0.0702613  8.04693  17.4796  29  139  60  
0.221361  8.54902  18.5933  34  126  57  
0.247769  7.87272  17.099  27  98  42  
0.447931  7.44253  16.1591  77  160  95  
0.464417  7.40497  16.0771  61  110  60  
0.519922  7.40638  16.0873  79  130  83  
0.666836  7.45152  16.1861  30  79  32  
0.727887  7.50304  16.2987  69  137  79  
1.10531  6.76097  14.6833  78  168  102  
1.66584  7.65265  16.6632  89  170  110  
1.31188  5.97911  12.9677  93  175  114  
1.6353  7.1465  15.5475  116  195  136  
1.6609  5.60175  12.154  35  90  36  
1.98247  5.69872  12.3774  28  64  30  
1.67788  4.80537  10.4117  45  110  53  
1.75661  4.84886  10.5117  48  146  67  
-0.60952  8.75825  19.0085  36  84  43  
-0.272894  8.94907  19.4423  15  105  32  
-0.107099  8.46958  18.3951  29  127  51  
-0.0799748  8.15271  17.6951  39  150  69  
0.113512  7.28879  15.788  6  41  8  
0.951796  6.84742  14.8525  16  58  18  
1.51224  5.44662  11.7986  28  89  34  
1.65757  5.67564  12.3047  38  93  39  
1.76506  4.9443  10.711  79  171  99  
1.959  4.28361  9.2791  27  150  61  
-0.928638  8.92601  19.3574  0  44  1  
-0.5392  9.45358  20.5351  35  150  70  
-0.441882  8.76835  19.0223  44  152  73  
-0.0997456  8.53687  18.5175  31  142  60  
-0.00827492  8.68283  18.8443  45  157  77  
0.707214  7.94117  17.2337  38  105  49  
0.976325  7.44478  16.1501  51  93  54  
1.0652  6.66734  14.4464  65  152  87  
1.44629  6.32988  13.7225  65  132  77  
1.7158  5.90852  12.8081  56  123  63  
-0.286664  8.39296  18.1794  21  114  39  
-0.260864  8.64349  18.7335  47  150  72  
-0.228062  9.16028  19.8774  49  150  70  
0.120148  8.44255  18.3038  57  161  86  
0.229929  7.73496  16.7536  11  79  23  
0.321176  8.35391  18.1187  32  92  42  
0.44564  8.31599  18.036  30  94  36  
0.561125  8.39679  18.2204  18  60  16  
0.805223  7.80858  16.9369  76  133  86  
0.764034  7.33045  15.8864  44  81  46  
0.83069  7.00252  15.1644  67  134  80  
1.09071  7.02667  15.2171  20  63  20  
1.13934  6.88599  14.9171  92  177  113  
1.46948  6.97781  15.1243  64  109  68  
1.651  6.03778  13.0789  37  103  46  
1.75231  5.25813  11.3769  40  133  61  
-0.712703  9.02396  19.5454  24  66  32  
-0.494215  8.75435  18.9668  21  140  59  
-0.09172  8.0523  17.4221  9  116  35  
-0.0321467  8.93134  19.3525  15  126  48  
0.00787584  8.34063  18.0577  0  57  1  
0.0356589  7.94433  17.1947  0  54  3  
0.221376  8.24467  17.8567  47  145  74  
0.99049  6.89872  14.9316  38  83  41  
0.956996  6.55497  14.1698  19  59  20  
1.06956  6.63874  14.3586  58  144  78  
1.31308  6.69412  14.4859  31  61  29  
1.26495  5.94449  12.8463  52  115  62  
1.86654  5.51814  11.9394  80  174  103  
1.64936  4.85509  10.4829  73  143  90  
2.05012  5.93923  12.8641  25  67  28  
-0.950222  9.42958  20.4017  0  46  0  
-0.884253  9.02146  19.5141  42  93  53  
-0.496433  9.2132  19.9401  18  133  52  
-0.207572  8.5541  18.5062  37  139  60  
-0.177639  8.50193  18.3927  7  45  10  
0.123266  7.60203  16.4204  15  54  17  
1.10233  7.31784  15.8453  75  121  76  
1.1578  6.80456  14.7135  85  162  102  
1.91879  5.63635  12.1865  65  158  91  
2.0188  5.74885  12.4319  49  126  66  
1.99896  4.5931  9.92114  37  156  70  
-0.960344  9.22467  19.9474  0  89  23  
-0.692093  8.47523  18.3021  62  122  77  
-0.614646  8.47021  18.2993  27  86  41  
-0.375315  7.94215  17.1368  0  26  0  
-0.19431  8.82508  19.0875  33  104  45  
0.123452  8.11996  17.5464  38  103  49  
0.460912  7.73746  16.7225  68  160  89  
1.0497  6.92898  14.9645  71  141  83  
-0.944549  8.71117  18.798  16  135  57  
-0.485219  8.02395  17.3068  8  114  35  
-0.431244  8.48223  18.3095  0  56  0  
-0.370064  9.12567  19.7238  39  92  49  
0.0701003  8.39837  18.1357  22  108  45  
0.235254  8.02468  17.3318  16  89  30  
0.963912  6.97898  15.0666  83  130  88  
1.30598  6.18675  13.3387  42  85  39  
-0.950386  9.21645  19.8946  0  81  12  
-0.624014  8.78886  18.9585  25  81  38  
-0.431782  7.80485  16.8092  25  127  51  
-0.446668  8.50803  18.3494  1  96  19  
-0.0216388  8.33055  17.9805  44  149  72  
0.38764  7.5698  16.3219  37  97  39  
0.517009  8.16118  17.6208  81  167  101  
0.648782  7.48061  16.15  33  108  49  
1.00277  7.80178  16.8479  45  102  53  
1.06072  6.89592  14.873  42  102  53  
1.03909  6.50684  14.0217  13  71  16  
1.13587  6.80473  14.6685  76  152  92  
1.69863  4.76844  10.2621  61  165  88  
-0.375813  8.76096  18.8982  44  130  65  
0.113513  8.77693  18.9415  41  133  66  
0.173105  7.96256  17.1666  5  61  13  
0.215595  7.76401  16.7285  43  133  66  
0.941813  7.80308  16.8435  22  68  24  
1.00966  6.83232  14.7154  85  175  104  
1.80575  5.25637  11.3127  24  76  30  
-2.0086  9.54898  20.5617  0  117  34  
-0.292243  8.53409  18.382  37  128  52  
-0.064483  8.41223  18.1261  25  138  54  
0.0733284  7.74088  16.6564  35  105  49  
0.483085  8.33525  17.9754  40  134  63  
0.575801  7.66538  16.5077  28  79  28  
0.754748  7.35416  15.8403  57  117  67  
1.2328  6.1594  13.2501  67  113  70  
-0.917081  9.51699  20.4931  15  62  24  
-0.803128  8.76288  18.8526  46  99  57  
-0.551721  9.23758  19.8973  18  118  42  
-0.512072  8.76677  18.8611  10  112  34  
-0.463959  8.12293  17.4604  15  120  42  
-0.406233  8.29543  17.8414  0  84  14  
-0.269968  8.51595  18.3186  51  157  75  
-0.113052  8.05818  17.3359  44  150  70  
-0.0614157  7.68908  16.5223  24  128  51  
0.24157  8.0524  17.3235  27  97  39  
0.420986  8.97742  19.3514  7  44  1  
0.815387  7.64935  16.466  36  91  45  
0.918106  7.50321  16.1566  58  130  73  
0.958944  7.38278  15.8956  80  157  96  
0.933322  6.592  14.1628  40  84  46  
1.05704  6.64307  14.2798  12  62  17  
-0.714076  8.51228  18.2864  52  109  65  
-0.402403  7.75486  16.6425  20  126  46  
-0.361836  8.52086  18.3132  38  114  55  
-0.232104  8.43371  18.1328  46  152  70  
0.434484  7.11687  15.2785  68  162  87  
0.620861  7.69509  16.5505  79  176  104  
0.712923  7.3129  15.7163  29  97  38  
0.728877  7.05657  15.155  37  119  59  
1.05824  7.1434  15.3566  54  144  77  
1.27303  6.50839  13.9884  58  114  65  
-0.471011  8.13466  17.4553  0  87  13  
-0.127279  8.11376  17.418  40  117  52  
0.00136161  7.85181  16.8597  7  80  21  
0.0272434  7.97475  17.1179  7  69  18  
0.353841  7.44629  15.9766  25  78  27  
0.538211  8.11412  17.4422  29  94  36  
0.590238  7.99191  17.1779  36  107  49  
0.88802  7.2171  15.4956  75  175  106  
-0.726029  8.4846  18.1869  11  47  14  
-0.282615  8.86314  19.0284  32  126  50  
0.0527686  7.4871  16.0505  7  56  9  
0.587144  7.777  16.6986  77  172  102  
1.40982  6.29685  13.5007  113  194  131  
-0.0768009  8.32784  17.8572  11  69  17  
-0.0225901  8.34423  17.9004  27  129  49  
-0.0186654  7.91254  16.9539  36  143  66  
0.0402117  7.65502  16.3986  4  74  17  
0.135296  8.23086  17.6559  0  55  3  
0.932962  6.85214  14.6809  71  141  86  
-0.375753  8.51658  18.2483  47  121  62  
-0.271025  8.36594  17.9158  16  77  23  
0.104611  7.92422  16.9793  0  65  8  
0.264847  8.275  17.7435  24  110  42  
-0.795634  8.50665  18.1948  36  86  46  
-0.592365  8.89583  19.0407  27  76  33  
-0.504395  8.89393  19.045  0  49  0  
0.398114  8.58763  18.4182  55  138  68  
-0.667629  8.57073  18.3249  62  153  87  
0.05374  8.58182  18.3653  10  104  32  
-0.758194  9.46524  20.2401  9  71  18  
-0.660624  9.31408  19.9152  0  53  1  
-0.480598  8.40466  17.9444  8  82  21  
-0.422699  8.62131  18.4179  2  96  17  
-0.295457  7.97355  17.0259  26  93  33  
-0.0601167  7.55837  16.1338  1  76  11  
-0.0139578  8.04471  17.179  30  141  62  
-0.749086  8.6972  18.5646  31  99  48  
-0.167395  8.6139  18.4022  12  68  19  
-0.124122  8.24841  17.6014  20  99  34  
-0.0999226  8.87001  18.9527  0  54  0  
0.0243755  7.75229  16.529  48  161  80  
-0.485977  8.28517  17.6571  0  55  1  
-0.242633  8.13886  17.3586  5  76  11  
-0.703458  8.75384  18.6459  42  155  78  
-0.594128  8.45719  18.0103  27  141  63  
-0.598931  8.90615  18.9805  18  117  43  
-0.53396  8.10938  17.2651  0  67  12  
-0.483996  8.79255  18.7534  22  127  47  
-0.337932  8.33309  17.7523  0  36  0  
-0.284152  8.533  18.1888  0  83  11  
-0.917811  8.94679  19.0427  0  73  11  
-0.847247  9.43748  20.102  0  38  0  
-0.715387  8.12917  17.2848  22  116  48  
-0.752129  9.21477  19.6421  30  135  62  
-0.514214  8.62442  18.3608  0  42  0  
-0.237676  8.61786  18.355  12  116  39  
-0.181261  8.34776  17.7685  24  132  54  
-0.471499  8.38387  17.8225  16  130  49  
-0.390794  8.56619  18.2204  0  73  9  
-0.214556  8.52265  18.1432  22  130  52  
-0.121179  8.09441  17.2111  47  159  77  
-0.825495  8.42986  17.9051  14  86  31  
-0.828165  9.40989  20.017  9  71  20  
-0.674689  8.49025  18.0265  3  120  41  
-0.507694  8.31748  17.6651  0  82  13  
-0.446283  8.91659  18.9704  20  135  55  
-0.855404  9.3012  19.7589  9  90  26  
-0.82038  9.10231  19.3174  0  87  17  
-0.381153  8.6367  18.3398  21  132  52  
-0.735894  8.8301  18.7203  37  155  76  
-0.82111  8.67666  18.3692  11  132  51  
-0.642254  9.12991  19.3183  23  143  63  
-0.625449  8.37656  17.6693  42  162  81  
-0.942438  9.36056  19.7497  18  138  56  
-0.767437  9.65723  20.3707  4  123  42  
-4.23699  8.60577  17.6955  6  125  42  
-4.41667  -11.154  25.4616  0  102  26  
-3.94581  -9.65428  22.2767  10  127  58  
-4.08536  -10.0507  23.1985  17  141  85  
-3.6113  -9.97584  23.2562  6  120  50  
-3.60876  -9.95057  23.2396  0  106  44  
-4.19037  -10.3311  24.1456  0  107  72  
-3.72821  -9.4076  22.0529  15  149  132  
-3.91797  -10.1945  23.9014  4  121  75  
-2.31159  -8.42264  19.8208  12  146  117  
-3.85049  -9.70056  22.9146  11  144  137  
-2.32572  -8.94359  21.1581  0  132  104  
-3.32967  -9.00694  21.3423  0  113  51  
-2.54292  -8.79629  20.8569  0  99  21  
-0.361231  -8.05869  19.117  20  154  126  
0.348223  -6.52034  15.5728  8  125  56  
-0.32514  -7.84385  18.6575  26  158  124  
-4.42065  -9.82093  23.3409  0  107  46  
-4.66424  -10.4654  24.8398  6  120  65  
0.43286  -7.07419  16.8986  28  162  149  
-4.35058  -9.64078  22.9917  21  152  113  
-3.78448  -8.77694  20.9661  23  160  158  
-3.96764  -9.47569  22.5979  8  140  120  
-4.08454  -10.0137  23.8504  0  116  65  
-4.42241  -9.63357  22.997  22  144  79  
-4.23557  -9.48055  22.6346  29  160  134  
-0.966025  -7.27275  17.4446  5  140  127  
-4.39252  -10.3363  24.6566  7  136  126  
-1.67034  -8.53581  20.4194  20  153  134  
1.40224  -6.08629  14.6447  21  159  149  
-4.12392  -9.54771  22.863  0  122  73  
-4.37364  -9.98713  23.9238  9  138  90  
-3.8635  -8.93852  21.4537  8  135  68  
-1.73035  -7.95951  19.1262  10  144  137  
-0.342706  -7.36424  17.7054  6  132  90  
0.473776  -6.87809  16.5511  28  163  157  
1.37838  -6.02017  14.5493  3  133  113  
-2.43837  -8.60038  20.7172  12  151  157  
-2.32444  -8.4877  20.4484  27  169  170  
-1.8599  -8.3314  20.0703  5  138  141  
-1.96929  -8.6462  20.8366  14  153  144  
-0.519312  -8.03445  19.3706  9  150  155  
-2.22524  -8.23092  19.9029  0  112  52  
2.01282  -5.61578  13.6559  8  127  80  
-0.592061  -7.92349  19.153  22  152  125  
1.4967  -6.53349  15.821  3  131  104  
-0.404844  -7.54266  18.2702  6  130  77  
-2.59674  -8.45135  20.48  6  124  62  
-2.47045  -8.10872  19.6805  15  141  93  
-1.59439  -8.2344  19.9461  20  145  82  
0.468754  -6.8752  16.6977  16  148  125  
-3.25991  -8.26558  20.0866  5  116  48  
-2.37041  -8.74736  21.1905  0  112  49  
-2.28545  -8.18707  19.8915  10  146  152  
1.55844  -6.72194  16.3131  23  164  161  
1.47725  -6.38683  15.5663  9  145  142  
-4.28028  -9.34056  22.7099  10  144  134  
-3.43805  -8.90076  21.6646  10  133  98  
1.48732  -5.99846  14.6715  0  110  68  
2.1202  -5.71753  14  28  159  135  
-0.495875  -7.93199  19.3232  33  167  143  
2.16705  -5.96411  14.584  26  160  157  
1.49037  -6.10634  14.9719  0  130  135  
1.59777  -6.01665  14.7406  7  124  49  
-3.80261  -9.54315  23.2721  0  116  67  
1.41067  -6.04715  14.8449  4  141  143  
1.54861  -6.45293  15.7893  9  155  163  
2.19004  -5.86165  14.3714  0  114  62  
2.92958  -5.12714  12.6223  7  141  99  
-3.41167  -8.35061  20.4431  0  107  44  
-1.10428  -7.97836  19.5084  34  164  120  
1.53013  -5.92029  14.5443  14  151  125  
3.01753  -5.31543  13.0621  26  167  149  
3.34156  -5.25715  12.9101  20  159  120  
-3.43908  -8.71559  21.3305  31  163  136  
-1.74804  -8.05196  19.7149  12  149  144  
1.63081  -6.14131  15.0817  29  157  99  
-3.6167  -9.36885  22.9148  0  120  98  
-2.42693  -7.88695  19.3569  2  109  56  
-0.477255  -7.6129  18.6542  7  121  53  
-4.69387  -10.0326  24.5413  6  123  74  
-1.80941  -8.03818  19.7196  0  124  119  
1.48259  -5.61272  13.85  33  164  127  
2.10885  -5.67843  13.9978  0  134  130  
-3.94126  -8.69162  21.3814  6  130  77  
-3.74617  -8.70305  21.3955  9  138  88  
-2.07429  -8.34502  20.5116  7  127  87  
-1.87061  -8.64895  21.2322  0  127  101  
-1.06226  -7.46891  18.3951  0  102  38  
-1.06503  -7.83131  19.2623  0  99  27  
-0.567579  -7.41832  18.2642  19  154  129  
0.300476  -5.96157  14.7688  1  134  115  
-4.07627  -9.27887  22.8665  11  141  90  
1.7429  -6.80401  16.7861  20  160  145  
2.24363  -5.86493  14.5141  19  149  90  
3.1776  -4.99966  12.4155  14  165  173  
2.90357  -5.14201  12.7845  8  134  80  
2.20967  -5.78813  14.3555  23  159  123  
2.34815  -5.39941  13.427  10  147  114  
2.97412  -4.68649  11.7078  12  164  171  
-3.4895  -8.96348  22.1547  5  134  126  
-3.92808  -8.59565  21.3091  6  127  74  
2.39898  -5.46215  13.6046  15  139  88  
-2.35996  -8.27302  20.5158  28  171  167  
-4.32067  -9.10563  22.5996  0  114  87  
-4.03461  -9.17254  22.7794  6  140  130  
-3.7405  -8.52801  21.2213  16  155  151  
-4.13447  -9.96278  24.6748  0  102  44  
-1.76724  -8.15014  20.2541  0  105  42  
1.1945  -6.10677  15.227  6  117  52  
1.4356  -6.31588  15.734  2  151  160  
3.02685  -5.16375  12.9023  35  174  148  
2.47598  -5.6402  14.0844  27  170  165  
-1.03582  -7.41463  18.4979  9  127  73  
1.41395  -6.02031  15.0549  0  123  124  
-3.77129  -9.74325  24.2022  24  165  162  
-2.38719  -8.21303  20.4767  15  156  146  
-1.76265  -7.86702  19.6184  13  148  136  
-1.61409  -7.48361  18.7037  0  103  27  
1.40963  -5.66045  14.2067  15  142  98  
2.40253  -5.55897  13.92  3  148  149  
2.42103  -5.47705  13.7253  28  162  139  
2.45948  -5.53269  13.8612  16  141  70  
-3.72542  -9.85039  24.4866  0  103  40  
-2.43548  -8.11218  20.2498  0  126  93  
-1.80506  -7.75634  19.3758  0  117  72  
-0.483102  -8.16054  20.3151  9  133  68  
0.293334  -6.86286  17.1479  23  159  129  
3.28166  -5.04049  12.6506  0  125  66  
0.568373  -6.56999  16.4405  0  137  132  
1.21618  -6.26906  15.7056  43  172  120  
1.55985  -6.45644  16.1446  31  178  184  
2.29562  -5.57311  13.9766  38  170  128  
-3.42779  -8.59958  21.4924  9  139  101  
-2.28971  -8.07872  20.2037  8  143  126  
0.286322  -6.71137  16.8166  7  133  76  
2.40751  -5.48401  13.7688  35  176  184  
-0.182208  -7.2865  18.2475  12  136  63  
0.3674  -6.90892  17.3175  5  125  71  
1.30468  -6.02164  15.1395  20  166  173  
2.0348  -5.71516  14.3645  2  125  64  
2.43967  -6.09811  15.2715  0  115  65  
-4.10994  -8.71658  21.8435  27  166  172  
1.16731  -6.00729  15.1137  0  118  49  
1.55446  -5.96519  15.0032  0  107  27  
-0.313465  -6.98069  17.5394  0  116  70  
-0.170583  -6.96453  17.4971  9  124  46  
2.48866  -6.26655  15.7148  0  108  32  
-2.03105  -7.05557  17.8136  23  163  159  
-0.545538  -6.69039  16.8762  0  129  124  
1.4394  -6.09011  15.3425  0  112  103  
3.27262  -5.00741  12.6542  0  144  140  
3.20229  -4.84759  12.2659  0  125  74  
2.00727  -5.04628  12.8156  0  112  42  
2.43344  -5.59203  14.1083  13  148  145  
-3.74098  -8.77489  22.0754  21  157  139  
-3.69598  -9.17892  23.051  0  106  61  
2.97049  -4.98348  12.6307  17  158  138  
2.35399  -5.21483  13.2343  0  116  50  
3.11954  -5.26822  13.3278  0  136  134  
3.29846  -5.17034  13.0757  11  156  161  
-3.92227  -10.2428  25.6942  9  132  64  
-2.38411  -7.88962  19.9116  0  97  45  
2.18385  -6.14431  15.5157  17  152  152  
3.0209  -5.02693  12.756  29  166  136  
-3.81625  -8.59389  21.7022  26  164  156  
-0.315455  -7.4037  18.6808  0  106  64  
-0.17946  -6.83394  17.2912  1  123  54  
2.18026  -5.66224  14.3485  25  165  130  
1.30962  -5.83362  14.8179  0  139  142  
2.25802  -5.45589  13.8682  0  109  43  
2.40197  -5.32361  13.5364  12  140  77  
2.42183  -5.32109  13.5297  2  119  38  
-4.23461  -8.72992  22.0785  10  140  128  
-4.31405  -9.26386  23.3948  12  130  78  
0.627056  -7.07393  17.8642  7  143  138  
-4.53159  -9.41449  23.8068  0  126  123  
-2.13413  -7.43935  18.9007  5  141  112  
0.279458  -6.68032  16.9674  11  143  80  
3.00155  -4.94391  12.6172  17  137  57  
-4.3701  -8.95651  22.6982  0  110  75  
1.62242  -5.70079  14.5169  5  125  50  
0.432234  -6.51081  16.5825  7  127  49  
2.94053  -5.12555  13.0846  21  146  71  
2.8022  -4.84637  12.4073  3  137  122  
3.05544  -5.04481  12.8871  36  173  131  
-3.8337  -9.32112  23.6311  18  149  108  
-2.74416  -8.25616  20.9772  24  158  122  
-0.974463  -6.13693  15.7339  0  105  33  
0.302829  -6.37654  16.265  20  152  106  
0.524257  -6.11546  15.6235  3  115  70  
3.0303  -4.50411  11.5635  5  133  87  
-3.77703  -8.64506  21.987  0  100  66  
0.731042  -7.12737  18.0999  15  157  149  
2.28821  -5.93691  15.1238  12  141  96  
-0.752427  -7.20605  18.3754  7  129  67  
1.29658  -5.7205  14.65  21  163  155  
1.61963  -5.59628  14.3047  0  104  30  
2.25312  -5.38801  13.7927  0  110  44  
2.89348  -5.05284  12.9477  4  123  61  
3.03145  -4.74897  12.1891  8  131  67  
-4.62374  -9.48451  24.1221  3  121  83  
-3.85744  -9.38683  23.8647  3  121  75  
1.3489  -6.84432  17.4422  0  107  25  
1.39103  -5.898  15.0935  0  111  57  
1.64414  -5.7495  14.7022  5  131  84  
2.04871  -5.31352  13.6361  0  119  63  
3.22387  -4.9408  12.6672  1  151  164  
1.26047  -6.04566  15.4812  27  170  170  
2.92529  -5.08637  13.0632  13  149  139  
-6.82251  -15.0378  37.8995  0  107  52  
-2.49958  -8.65432  22.0522  28  168  164  
-0.631388  -7.00545  17.9234  11  159  167  
-0.490728  -6.91449  17.7013  7  130  107  
2.20483  -5.15459  13.2666  27  167  165  
3.01945  -5.21087  13.368  30  177  184  
-0.312029  -6.80088  17.4213  0  112  94  
1.22052  -5.56491  14.3449  15  161  167  
1.57309  -5.64123  14.4814  30  174  179  
1.57672  -5.91627  15.2103  12  151  135  
3.15651  -5.1629  13.3102  0  116  40  
3.20569  -4.90877  12.6738  16  168  180  
1.28281  -5.99647  15.4629  0  129  119  
-0.372854  -7.07419  18.216  0  118  95  
2.4629  -5.85129  15.0607  11  141  101  
1.3301  -6.15829  15.8947  0  122  116  
-2.47899  -8.17947  21.098  0  116  104  
-0.239077  -7.36546  18.9966  7  126  51  
0.69302  -6.73854  17.4003  18  160  157  
-3.88277  -8.98891  23.1849  8  129  77  
0.344804  -6.71633  17.3757  3  129  76  
0.816722  -4.46523  11.7206  9  136  87  
1.73856  -5.80151  15.0585  11  151  150  
3.02496  -4.78551  12.4573  30  166  133  
3.22824  -4.81172  12.5268  0  119  41  
-1.80424  -7.01607  18.2006  26  157  99  
2.05418  -5.25887  13.7063  5  140  125  
-4.00005  -8.81661  22.8062  9  142  116  
-3.7102  -8.52394  22.0682  0  129  100  
-3.6453  -8.42071  21.8045  6  132  91  
-2.23537  -7.31121  18.9869  0  111  87  
-0.696182  -6.81519  17.6971  16  157  160  
1.00224  -5.35319  13.9718  0  126  88  
2.13933  -5.51326  14.3394  0  116  98  
3.08272  -4.88173  12.7265  33  167  134  
3.06295  -4.71447  12.3124  3  151  157  
3.2411  -4.85865  12.6586  1  134  81  
-4.16287  -9.39552  24.2804  15  155  138  
-1.63383  -7.36029  19.111  21  156  136  
-1.10279  -8.77766  22.6463  7  128  59  
2.31626  -5.13251  13.3993  11  154  148  
-4.46409  -8.74465  22.6645  4  124  60  
-4.88734  -10.2522  26.4703  3  118  61  
-3.04361  -9.03151  23.3707  11  134  53  
0.619489  -6.61349  17.1691  11  149  151  
2.24665  -5.4698  14.2622  33  172  158  
2.31452  -5.03482  13.176  4  149  150  
2.96297  -5.18966  13.5342  23  153  122  
-4.00409  -8.77932  22.7788  0  125  98  
-3.97508  -8.92946  23.1496  5  142  123  
-4.10073  -9.34594  24.189  0  139  126  
-2.51333  -7.68848  19.9919  2  128  88  
-0.671699  -6.71201  17.4857  18  153  120  
1.09268  -5.39357  14.1153  4  122  55  
-0.590073  -7.43642  19.3156  6  142  132  
0.313253  -7.40124  19.1817  4  131  104  
0.423572  -6.33104  16.5183  0  115  77  
2.95681  -4.93591  12.9182  16  162  172  
2.99389  -4.9309  12.9047  3  137  120  
3.11657  -4.79795  12.5684  0  119  110  
-2.06212  -6.72463  17.603  0  123  105  
-0.692303  -7.17659  18.6914  0  104  36  
0.388362  -6.19241  16.1803  0  112  53  
1.55143  -5.62542  14.6934  28  151  68  
2.18155  -5.29255  13.8657  12  153  140  
3.2409  -4.83384  12.6581  9  124  59  
-3.37616  -7.16439  18.7622  7  142  125  
-2.14217  -7.3137  19.1049  16  141  81  
1.37322  -6.05168  15.795  19  159  157  
1.39485  -5.72437  14.9867  0  129  119  
1.50793  -5.88  15.3763  0  136  126  
1.77996  -5.885  15.3767  0  111  48  
2.84348  -4.88259  12.8091  14  145  111  
3.04622  -4.97566  13.0379  0  107  50  
3.05946  -4.79547  12.5755  20  144  79  
-2.63994  -8.43021  21.9413  3  131  90  
0.701303  -6.47676  16.9199  0  115  40  
1.60365  -6.21236  16.2104  7  141  115  
