1157
-5.92585  -24.746  85.428  114  113  101  
-12.1532  -23.3919  81.6589  80  78  67  
-5.91178  -24.3609  85.2428  89  87  78  
-11.5647  -17.2803  60.5361  97  97  84  
-13.1853  -20.3594  71.3685  99  99  86  
-11.1336  -20.2688  71.0566  64  62  54  
-5.35518  -21.0474  73.7616  79  77  69  
-15.8497  -15.8791  55.8393  63  110  117  
-15.1358  -24.2159  85.1933  123  121  106  
-9.99844  -20.1017  70.8604  68  66  52  
-6.41095  -23.5494  83.1026  84  81  72  
-2.40946  -16.5169  58.69  143  138  124  
-5.80226  -23.5161  83.667  88  84  74  
-18.4895  -18.8848  67.1603  24  29  31  
-15.7261  -23.8377  84.7949  73  72  65  
-15.3158  -23.817  84.7226  85  84  77  
-5.98823  -23.1577  82.6316  73  70  59  
-15.0849  -15.3736  55.2794  65  114  134  
-13.4943  -19.4461  70.0921  65  65  56  
-12.6931  -23.349  83.9969  75  74  64  
-17.3002  -18.5917  67.234  48  48  41  
-12.1298  -18.3865  66.5043  169  168  154  
-11.8726  -23.1509  83.7561  60  58  51  
-3.86007  -23.1321  83.9248  96  94  81  
-3.36555  -23.3286  84.6313  97  94  83  
-2.1  -17.4021  63.3416  101  98  86  
-15.0112  -14.9987  54.8583  19  26  29  
-15.0807  -22.8021  83.4354  91  88  81  
-11.7518  -18.0765  66.1316  83  80  72  
-10.7573  -18.7263  68.6707  55  54  44  
-10.121  -18.7367  68.7084  64  62  54  
-6.18563  -21.8454  80.1969  134  132  123  
-5.28174  -19.4352  71.2411  171  170  158  
-5.60488  -22.0184  80.8258  80  78  66  
-3.56042  -22.4983  83.0386  75  72  61  
-3.31606  -22.5958  83.3951  84  80  70  
-1.91904  -15.5102  57.6678  94  91  78  
-17.7609  -18.0545  66.8013  64  120  127  
-5.89338  -21.4409  79.6267  74  70  64  
-3.88489  -21.8811  81.7111  66  64  54  
-3.0767  -22.4337  83.9933  173  172  155  
-12.7474  -18.0848  67.8752  81  82  71  
-6.3985  -20.8169  78.2268  79  79  64  
-5.94675  -20.9431  78.6961  92  88  79  
-14.7069  -21.7913  82.0887  71  69  61  
-4.86457  -18.5578  70.0325  91  89  78  
-10.0381  -17.1717  65.055  74  72  63  
-9.55098  -17.6334  66.974  82  79  71  
-2.19223  -14.486  55.4894  84  83  72  
-2.87447  -21.5565  81.9226  83  81  74  
-2.63152  -21.657  82.3004  79  77  69  
-2.71181  -15.4958  59.474  143  141  126  
-5.71498  -20.068  77.2273  55  51  42  
-5.49269  -20.1354  77.4836  54  52  40  
-15.3183  -21.0638  81.2635  72  72  63  
-14.38  -20.9896  80.9798  76  74  66  
-6.23488  -19.6888  76.2351  69  67  56  
-10.086  -16.8878  65.7098  89  90  73  
-5.32655  -19.7251  76.8306  102  101  90  
-14.5475  -20.6165  80.5125  60  58  49  
-5.62759  -19.4046  76.0513  167  166  153  
-10.0956  -16.5305  65.1148  81  78  71  
-14.096  -13.4636  53.1996  67  101  116  
-14.3161  -20.2162  79.927  98  96  88  
-6.10656  -18.8167  74.6726  55  53  44  
-5.35391  -19.0365  75.5341  54  53  41  
-14.6635  -20.0553  79.7839  66  64  55  
-15.0749  -25.6213  101.995  85  83  75  
-18.2674  -16.4082  65.6404  12  26  25  
-11.4185  -19.6993  78.8628  62  60  52  
-17.5836  -16  64.8246  66  117  134  
-12.3255  -19.3332  78.3803  67  64  58  
-15.2611  -19.3684  79.018  79  79  69  
-14.7252  -19.3122  78.7906  101  101  91  
-11.8619  -18.9341  77.7496  86  84  77  
-2.80967  -18.6194  76.6989  59  57  45  
-14.8873  -18.9599  78.3539  69  68  59  
-11.22  -15.1788  62.9013  66  65  57  
-18.3187  -15.4324  64.5656  69  115  123  
-2.53641  -17.8425  75.6868  68  67  56  
-14.1502  -18.1528  77.0142  67  68  59  
-12.0041  -17.996  76.3525  69  70  58  
-9.17832  -14.4716  61.3742  93  94  83  
-5.05975  -16.7626  71.3984  57  56  45  
-3.26126  -17.189  73.4266  71  68  56  
-18.6859  -23.4091  100.037  109  110  100  
-17.4922  -15.0597  64.6895  59  106  115  
-14.833  -17.8669  76.8197  99  101  88  
-13.6592  -17.7428  76.2896  90  90  81  
-18.2902  -14.9498  64.6519  64  113  127  
-3.50783  -16.39  71.4599  102  101  93  
-2.9009  -16.7462  72.9915  68  66  60  
-18.4472  -14.7125  64.4969  98  118  123  
-17.1021  -14.6834  64.3678  60  98  107  
-8.87968  -25.0419  110.195  106  105  93  
-5.19893  -15.5115  68.8339  87  85  75  
-4.80736  -15.6333  69.3663  75  75  65  
-17.0473  -14.4367  64.1647  70  109  126  
-14.1676  -16.9027  75.2082  167  167  153  
-17.9478  -21.7654  96.9137  54  55  42  
-9.23103  -13.3458  59.5668  79  78  69  
-13.9992  -21.0564  93.7765  58  59  51  
-2.4294  -16.1798  72.4899  85  83  72  
-17.7496  -14.3369  64.1672  66  108  122  
-18.8064  -21.7329  97.4422  65  63  54  
-13.3477  -16.6404  74.5635  63  61  52  
-3.02189  -15.6218  70.5073  82  79  73  
-18.3483  -14.2344  64.1575  100  119  124  
-16.5091  -12.7876  58.5388  67  119  132  
-17.1447  -13.9534  63.7878  57  110  120  
-13.9492  -16.18  74.0578  55  54  44  
-13.7047  -20.0396  91.8142  69  69  58  
-8.0404  -23.0787  105.944  119  118  106  
-4.68514  -14.7068  67.6069  77  76  66  
-14.4167  -19.8906  91.7891  67  65  56  
-13.1707  -19.7398  91.096  65  66  57  
-2.3656  -15.201  70.5823  72  70  57  
-5.01454  -23.2777  108.372  78  77  63  
-13.4051  -15.6031  72.9889  82  78  74  
-13.0317  -15.5647  72.8106  76  74  66  
-5.44749  -13.9138  65.3949  64  63  52  
-4.80052  -14.109  66.2968  73  71  62  
-21.9132  -16.9666  79.8888  51  104  112  
-2.52499  -14.519  68.9286  80  77  69  
-3.17156  -8.78282  42.5321  166  166  153  
-3.08024  -14.0016  66.9945  79  78  68  
-23.0823  -17.3389  83.4398  83  123  131  
-22.6735  -17.3263  83.3781  19  28  29  
-17.1867  -18.7847  91.296  65  66  55  
-6.74209  -7.36957  36.662  77  77  67  
-12.8869  -14.7017  71.3899  97  98  83  
-8.57129  -11.8165  57.346  92  91  83  
-5.03248  -12.3155  60.3753  89  87  75  
-4.72149  -12.4907  61.2186  66  65  54  
-7.01788  -20.6871  100.766  75  73  63  
-10.9519  -14.3873  70.3998  132  131  120  
-3.41422  -21.5922  105.91  95  94  83  
-9.1692  -9.63746  47.483  98  96  86  
-16.9941  -18.2916  90.2777  63  61  54  
-5.01609  -11.7709  59.0741  102  102  92  
-4.2112  -11.5683  58.0737  89  89  78  
-4.22224  -12.0453  60.8904  116  116  103  
-13.721  -13.9738  70.5357  63  64  54  
-10.438  -11.4244  58.0609  83  81  74  
-8.0085  -18.8947  95.7172  91  91  79  
-15.1933  -15.6944  79.7195  56  55  48  
-12.8212  -16.6928  85.0401  100  102  90  
-2.39564  -12.7483  65.3859  63  60  49  
39.4683  -19.3253  100.321  122  112  102  
-7.18222  -16.2686  84.1915  92  93  82  
-4.50303  -11.1786  58.3823  60  59  52  
-6.05358  -16.4106  84.911  101  100  92  
-33.0098  -23.7374  123.518  89  117  124  
-16.8376  -16.7277  87.2908  67  68  59  
-4.11156  -18.9149  98.88  171  170  155  
-3.35392  -16.6653  86.8874  171  170  156  
-2.13292  -8.49849  45.8849  71  69  57  
-2.26211  -12.0228  64.5014  75  74  62  
-6.40695  -17.0126  92.0128  70  67  58  
-15.6606  -15.4211  83.9177  103  102  96  
-14.8571  -15.2675  83.0872  58  58  47  
-13.129  -12.3164  67.5118  66  67  58  
-12.1599  -14.6958  80.6726  105  106  96  
-4.66474  -9.9098  54.9304  58  59  44  
-3.40124  -5.39642  30.762  87  87  77  
-8.55398  -14.4287  79.8732  88  87  75  
-4.33279  -16.8896  93.6776  74  71  60  
-3.51759  -17.1906  95.322  60  57  48  
-23.5774  -14.8181  82.4639  55  112  128  
-14.5827  -14.6023  81.5591  93  92  85  
-4.41254  -9.55709  53.9231  72  70  61  
-3.96959  -9.8434  55.9799  70  67  61  
-14.552  -14.1929  80.6874  80  81  72  
-15.8894  -14.2512  81.7385  67  69  58  
-4.46288  -9.23801  53.5314  82  81  71  
-9.67843  -14.1259  82.0602  115  115  103  
-6.24071  -9.37302  54.5549  114  113  101  
-5.91381  -9.30897  54.6704  71  69  60  
-11.5079  -12.8318  76.3635  82  82  70  
-9.66657  -13.3679  79.8515  88  88  77  
-8.58128  -12.6117  75.7375  67  65  56  
-6.5876  -13.8482  83.4151  68  66  56  
-2.49809  -9.6198  58.247  164  165  152  
-23.0601  -13.5102  81.5658  25  26  24  
-15.2709  -12.9576  78.5694  84  85  74  
-14.4963  -12.8138  77.7035  67  67  56  
-14.8679  -17.1483  103.588  84  83  73  
-5.16733  -7.88639  48.4165  108  106  96  
-5.74031  -13.8735  84.3364  94  93  84  
-19.3328  -17.6682  107.738  95  95  82  
-11.476  -12.0556  73.4921  84  83  71  
-6.82902  -13.2953  81.64  118  120  105  
-6.4951  -13.3957  82.2449  167  166  151  
-4.03433  -14.2234  87.2323  62  59  50  
-11.8451  -12.0897  74.7432  122  121  111  
-10.6169  -12.0189  74.3001  90  92  82  
-23.4497  -13.1325  81.5934  75  116  130  
-14.8068  -12.304  76.8043  59  59  51  
-5.31759  -7.34043  46.437  95  93  83  
-7.02298  -5.77252  37.1318  56  56  48  
-13.4677  -11.7892  74.6976  89  89  77  
-10.8398  -11.6519  73.4599  164  165  148  
-8.88716  -11.6456  73.4001  84  84  74  
-8.36762  -12.1774  77.0629  80  79  70  
-5.8093  -12.9122  81.6145  52  51  46  
-8.50316  -11.476  73.0487  83  83  73  
-2.6399  -10.5995  68.1549  58  55  44  
-14.6519  -11.723  75.3966  105  107  97  
-11.3086  -11.2617  72.7988  63  62  51  
-10.8201  -11.2817  72.5635  166  165  151  
-10.469  -11.2693  72.481  59  59  46  
-22.6965  -12.4906  80.7407  47  92  106  
-22.3736  -12.4516  80.4891  56  111  127  
-22.051  -12.4118  80.2324  43  100  113  
-2.62333  -8.4141  55.145  100  101  84  
-2.34915  -10.5191  68.997  103  101  90  
-14.4458  -11.3249  74.3399  61  62  51  
-19.8833  -16.2536  106.204  67  64  58  
-13.3066  -11.1467  73.1767  107  106  97  
-21.4158  -22.828  149.39  161  163  148  
-8.79537  -11.1647  73.6086  82  81  68  
-4.11204  -7.42638  49.3116  97  94  83  
-23.1215  -12.2632  80.9039  80  116  126  
-3.8332  -12.4753  82.8841  73  68  62  
-8.17357  -10.8719  73.1777  76  73  67  
-10.9323  -10.3893  70.3813  57  55  47  
-10.1388  -10.3638  70.2016  50  51  42  
-3.7849  -12.0616  81.8393  105  104  94  
-22.8624  -11.8164  80.444  12  24  33  
-21.5388  -11.6452  79.2823  24  27  22  
-7.42686  -10.2896  70.4022  75  74  63  
-23.3299  -11.7361  80.7554  84  94  98  
-21.0047  -11.4333  78.6787  54  92  104  
-12.1203  -9.65288  67.2339  88  89  77  
-8.41435  -10.0465  69.5065  80  80  65  
-22.7953  -11.5317  80.212  10  24  25  
-21.4585  -11.3555  78.9908  20  23  19  
-13.4148  -10.1096  70.7482  79  81  69  
-8.00826  -10.0602  70.7121  61  60  51  
-6.22473  -10.6005  74.4189  85  83  76  
-5.42641  -10.8653  76.2362  77  77  65  
-2.90724  -11.7428  82.2601  98  95  86  
-23.2674  -11.4536  80.5429  50  66  70  
-5.88824  -10.5062  74.5631  163  160  152  
-10.5717  -9.51301  68.0668  77  77  65  
-8.23281  -9.58357  68.9031  125  126  114  
-3.66746  -11.0659  79.2981  67  67  54  
-2.87184  -11.3451  81.2569  84  82  70  
-33.6133  -17.302  124.416  60  98  116  
-7.46677  -9.59975  69.7714  104  107  92  
-5.99907  -10.0668  73.0823  60  59  42  
-2.46878  -8.71193  63.7149  55  52  45  
-20.1694  -14.2124  103.445  75  74  67  
-5.2818  -10.1101  74.2039  74  73  64  
-12.5792  -6.15909  45.3041  33  69  78  
-9.17399  -8.3262  63.526  48  46  38  
-7.73721  -8.72616  66.49  75  73  64  
-7.5725  -8.77675  66.8652  76  74  68  
-5.9253  -9.31227  70.8383  113  111  100  
-2.78302  -7.78939  59.7596  53  52  38  
-10.879  -7.80415  60.3549  109  110  100  
-7.183  -8.7074  67.1198  58  57  49  
-4.95021  -9.45447  72.7283  92  92  78  
-2.76892  -10.2017  78.3389  75  74  62  
-22.2851  -10.2293  78.8689  56  112  127  
-21.5848  -10.132  78.1225  19  26  29  
-17.2439  -8.27998  64.0567  61  112  125  
-9.73238  -15.8663  122.7  63  62  52  
-7.78595  -8.13642  64.325  59  58  48  
-9.40738  -7.47661  59.9674  85  82  74  
-2.58478  -7.38512  59.4908  66  64  54  
-94.1662  -42.3302  338.634  63  106  124  
-12.2467  -8.01203  64.6062  52  53  42  
-18.6421  -15.8567  127.33  56  55  48  
-7.37118  -7.7155  63.3443  70  68  62  
-6.91131  -7.87048  64.5803  63  62  53  
-5.68221  -8.29046  67.9302  76  76  62  
-2.68681  -9.30334  76.0088  82  80  71  
-5.03042  -8.33702  69.1545  80  80  72  
-2.7455  -6.80688  57.0261  90  89  76  
-2.54407  -6.99336  58.5483  164  163  151  
-1.61461  -4.7372  40.0665  161  160  147  
-34.3218  -15.0266  124.898  8  23  26  
-22.1616  -9.26479  78.0129  14  24  32  
-7.05021  -7.2903  62.2525  68  67  60  
-12.5176  -13.788  116.576  78  77  70  
-19.2699  -14.4345  123.714  54  50  45  
-8.34537  -6.66266  57.7895  69  70  61  
-2.50453  -6.6136  57.6328  62  58  47  
-23.8166  -14.9642  131.76  68  70  58  
-11.4853  -6.752  60.6001  55  56  45  
-3.68768  -4.78424  43.8195  76  75  62  
-7.4117  -6.65244  60.4643  81  83  72  
-6.50071  -6.63907  60.7412  57  57  49  
-4.8023  -7.234  66.0138  71  70  62  
-2.6464  -5.95804  54.9553  89  87  78  
-2.10166  -6.40561  58.9658  98  97  84  
-35.9912  -13.9297  127.356  57  111  129  
-19.3454  -10.5033  96.1866  138  142  130  
-7.90296  -5.94262  55.3223  54  55  41  
23.1831  -6.50779  61.4335  114  104  96  
-17.7727  -6.66412  62.0791  64  109  123  
-2.93129  -7.52045  70.4823  85  84  73  
-2.07063  -6.03805  58.0891  62  61  50  
-10.9183  -6.01522  58.0919  99  99  89  
-6.75859  -5.89825  57.3096  83  81  72  
-6.30609  -6.06988  58.921  85  85  75  
-6.64767  -8.12728  78.9557  114  112  101  
-5.07668  -6.50799  63.0324  74  72  59  
-4.91922  -6.56162  63.5356  124  122  106  
-3.0887  -7.15368  69.0876  59  54  48  
-17.8185  -9.48727  92.186  60  61  51  
-8.33126  -5.89178  57.7127  99  98  90  
-4.56603  -6.52644  64.1352  62  61  48  
-6.27611  -5.77185  57.7986  160  162  150  
-5.08503  -6.1998  61.9364  85  83  74  
-6.77429  -5.42338  55.252  85  84  71  
-21.5002  -7.45236  75.7096  15  24  26  
-20.3508  -7.29415  74.1149  13  27  29  
-7.85685  -4.77138  49.5921  67  65  60  
-7.59207  -4.90466  50.924  85  84  76  
-6.24374  -5.48184  56.6861  70  70  60  
-2.15985  -5.35106  55.6935  70  64  58  
-7.42781  -4.82231  50.885  74  75  66  
-3.40015  -4.0059  42.7772  163  161  152  
-4.6825  -5.89089  61.7155  72  68  62  
-21.9806  -7.25765  76.1447  78  112  125  
-7.26654  -4.74194  50.8653  106  107  97  
-4.43566  -4.84056  50.9963  120  120  107  
-10.4687  -5.06982  54.7996  52  52  45  
-10.1991  -4.93598  54.2737  121  121  113  
-6.44939  -4.8114  53.2765  65  63  54  
-3.46078  -3.51596  39.6283  81  81  70  
-12.8947  -7.4042  81.9462  90  91  79  
-15.7117  -9.16569  101.927  60  61  50  
-7.2714  -4.26701  48.2676  70  70  61  
-6.18043  -4.77981  53.8246  71  69  59  
-3.29829  -3.7004  42.3242  64  64  53  
-1.5122  -2.88242  31.6917  63  59  49  
-1.97306  -4.88718  55.3313  65  64  53  
-14.2551  -8.79514  99.5332  89  87  78  
-10.4867  -8.48792  97.6952  95  95  84  
-18.9868  -8.8761  104.182  50  48  43  
-12.8013  -6.90012  80.5609  86  86  75  
-6.29464  -4.31239  51.3354  75  74  63  
-11.4025  -6.61893  78.7085  67  66  57  
-3.10605  -3.52501  43.3372  66  66  53  
-3.28638  -3.16044  39.7647  92  93  81  
-3.21159  -3.28038  41.2046  71  71  59  
-1.5681  -2.85857  36.073  66  65  52  
-37.0634  -10.4263  128.35  70  109  117  
-7.36253  -3.04143  38.8409  70  71  61  
-9.27897  -4.08285  51.0755  59  61  50  
-6.68533  -3.69839  46.7933  107  107  97  
-2.46343  -3.89683  49.5144  54  52  40  
-18.3624  -7.81473  99.0648  51  52  44  
-14.9748  -7.43912  94.2918  55  53  44  
-1.97577  -4.1057  53.0642  75  72  63  
-6.59719  -3.46523  45.6776  70  69  62  
-10.4828  -7.14799  92.3022  60  57  54  
-10.2089  -7.15879  92.4282  84  83  76  
-19.8566  -5.36377  70.1458  58  115  124  
-33.2666  -9.16288  119.773  9  24  25  
-6.71425  -3.23767  43.6634  90  89  82  
-9.84695  -6.96274  91.7423  88  87  77  
-4.7626  -4.11406  54.8705  63  60  52  
-4.3717  -4.23761  56.4459  56  53  46  
-4.23508  -4.27905  56.9742  74  72  62  
-4.09529  -4.32064  57.5042  72  70  60  
-6.95337  -2.57095  35.8017  72  74  63  
-17.7462  -7.03975  94.9453  64  64  59  
-17.1142  -6.96353  93.9187  63  65  57  
-4.0883  -6.24172  84.7777  65  64  57  
-35.6268  -9.15622  124.748  19  23  23  
-30.6023  -8.31602  113.392  62  107  122  
-2.06513  -3.63595  51.1563  73  73  61  
-5.76877  -3.37376  48.267  76  77  66  
-2.98328  -2.86477  41.6131  121  120  108  
-1.80087  -3.67582  52.7939  108  106  96  
-29.8596  -7.38989  105.445  60  110  121  
-10.006  -6.13144  88.1073  69  69  58  
-3.13018  -2.58686  38.5964  77  77  67  
-16.4576  -6.02246  88.7995  54  54  44  
-36.3338  -8.45027  125.851  64  102  117  
-16.4643  -5.60213  86.6478  86  87  76  
-10.4589  -5.51713  85.0878  79  77  68  
-3.14178  -2.17809  35.9522  90  89  78  
-1.88847  -3.13188  50.6997  58  55  43  
-15.2716  -5.11063  83.1054  52  53  43  
-3.93674  -3.3009  54.0818  73  72  62  
-2.33009  -2.80783  46.8147  54  54  43  
-32.9649  -7.14267  117.39  10  20  24  
-29.9384  -6.60899  108.746  48  99  107  
-30.6441  -6.33258  107.044  57  106  118  
-29.633  -6.46785  109.192  46  103  117  
-9.8279  -4.805  82.0371  57  56  47  
-8.91717  -4.87139  83.0852  116  117  104  
-4.89271  -3.7617  65.3576  112  111  101  
-9.51016  -4.64716  81.5067  69  69  61  
-2.85685  -2.18305  39.8376  46  46  36  
-30.1979  -6.15382  109.695  14  21  24  
-28.7684  -5.98061  106.629  61  97  110  
-2.23851  -2.49658  46.4288  65  66  52  
-30.874  -5.90963  108.448  18  20  23  
-13.2148  -3.93608  72.5248  55  57  47  
-2.99952  -1.86323  36.2712  72  70  61  
-3.80509  -2.67875  51.1518  125  125  115  
-3.03726  -4.69999  89.0906  102  99  89  
20.6718  -2.75966  54.9357  101  93  84  
-9.57093  -3.94798  77.8664  84  85  73  
-4.94996  -2.26184  45.5619  63  62  52  
-3.02  -1.66182  34.549  72  71  60  
-5.97374  -4.26091  83.5743  88  87  77  
-2.25873  -2.22606  45.3696  55  53  42  
-3.02411  -4.07779  81.0977  57  53  45  
-19.7018  -3.45871  69.2442  16  20  23  
-29.4984  -5.35577  107.471  17  21  26  
-14.1646  -3.55023  72.7628  53  54  42  
-9.06933  -3.82159  77.7295  63  61  52  
-6.15768  -4.07789  82.5482  75  77  66  
-2.77881  -1.76059  38.7416  105  104  93  
-31.6175  -5.0999  109.265  53  107  120  
-30.309  -5.2392  112.027  54  106  122  
-12.6535  -3.06223  69.4563  49  51  40  
-9.10509  -3.33338  75.0285  72  71  60  
-8.22367  -3.41057  76.6243  52  50  41  
-4.60488  -1.69485  41.4698  77  75  65  
-4.63699  -2.43516  58.2622  53  51  41  
-3.45631  -3.13483  74.0349  46  44  33  
-1.78545  -1.98881  47.9082  49  46  35  
-4.68239  -1.71792  41.2941  71  70  60  
-11.9782  -2.43908  64.6446  69  69  59  
-8.84592  -2.74465  71.968  66  65  56  
-3.59123  -1.8531  49.3115  52  48  44  
-11.9582  -2.27308  62.9473  51  51  42  
-11.6445  -2.31179  63.9201  73  74  66  
-10.3059  -2.4573  67.5618  103  102  91  
-1.97534  -1.59562  45.3718  54  52  42  
-2.5395  -1.84139  53.013  53  52  41  
-11.2604  -2.03962  61.8124  87  89  80  
-11.3111  -1.86631  59.5424  48  48  40  
-11.1717  -1.8923  60.2931  56  56  49  
-4.28304  -1.80873  58.408  52  50  41  
-2.09936  -1.32322  43.5192  50  48  37  
-1.73436  -1.4242  46.5235  53  51  40  
57.2731  -4.75373  150.803  116  107  96  
-27.7194  -3.09666  99.8826  61  105  117  
-26.6258  -3.00648  97.0407  56  110  120  
-9.47184  -1.9715  65.4384  86  86  76  
-8.09714  -2.10473  69.3955  72  71  60  
-4.3531  -1.12849  39.7545  53  52  44  
-9.93564  -1.77985  62.5755  61  61  51  
-9.81483  -1.79502  63.0531  55  55  45  
-9.69029  -1.81005  63.5258  79  80  69  
-3.91868  -0.788547  32.0739  63  62  54  
-2.91394  -1.93086  72.0599  160  159  146  
-33.3376  -3.02668  114.615  75  104  109  
-28.0284  -2.62742  99.8748  64  103  115  
-26.3186  -2.50604  95.3843  21  22  24  
-10.3485  -1.4241  56.8075  63  63  53  
-9.6249  -1.549  61.2194  153  153  140  
-4.91084  -0.773782  32.5763  71  69  62  
-9.15051  -1.60614  63.2178  67  68  60  
-2.63264  -1.86288  73.6514  66  64  55  
-4.14151  -1.3072  56.4699  54  52  43  
-33.3348  -2.71612  116.495  18  21  23  
-9.43009  -1.31461  59.3909  77  77  67  
-9.32982  -1.3284  59.9366  71  69  60  
-7.57402  -1.50109  66.6919  55  55  46  
-7.25946  -1.52547  67.6353  52  51  40  
-4.25781  -1.1234  52.4431  91  89  79  
-31.721  -2.55917  117.287  65  98  112  
-9.89001  -1.07199  52.9314  79  78  75  
-9.83399  -1.09639  53.9829  152  155  143  
-4.15209  -1.08355  54.2883  89  88  77  
-3.15557  -1.38248  67.5645  45  43  32  
-8.95108  -1.12968  59.2843  63  61  51  
-8.73999  -1.154  60.3803  122  122  111  
-9.53702  -0.871467  51.0422  57  59  50  
-9.36554  -1.06376  58.4132  62  63  52  
-3.74807  -0.465718  30.6691  111  110  100  
-4.10806  -0.59487  37.5054  94  93  84  
-33.9048  -2.02396  118.495  51  100  117  
-9.34334  -0.79754  51.2892  74  75  66  
-8.911  -0.897931  56.677  97  97  87  
-8.7827  -0.914864  57.5739  44  42  34  
-3.97192  -0.48925  34.7557  103  101  93  
-1.66616  -0.67241  44.6749  66  64  54  
-8.58753  -0.824477  57.4688  78  77  70  
-4.1582  -0.66725  49.3016  48  43  36  
-8.87608  -0.525658  48.7237  59  61  54  
-3.93475  -0.571163  53.6386  45  43  34  
-1.89999  -0.431154  42.1005  74  73  59  
-7.42436  -0.596796  60.3952  58  59  46  
-6.97473  -0.621169  62.2644  156  157  146  
-3.16082  -0.601495  63.4107  81  80  69  
-8.38789  -0.419566  52.8239  51  50  43  
-8.32828  -0.426902  53.4992  60  59  54  
-8.26201  -0.434096  54.1583  75  73  68  
-8.18941  -0.44116  54.8026  80  80  74  
-8.0693  -0.451534  55.7436  61  62  54  
-7.23264  -0.503493  60.3659  70  69  59  
-3.79984  -0.202645  32.7893  82  82  73  
-6.7087  -0.528015  62.4976  64  65  54  
-2.54605  -0.552361  68.215  86  84  74  
-7.99909  -0.16587  40.449  89  89  78  
-2.66005  -0.0905358  30.4039  62  61  46  
-33.6012  -0.567883  122.142  22  18  21  
-7.90441  -0.176059  52.8937  58  58  48  
-3.84155  -0.0597278  34.5626  64  62  53  
-2.03964  -0.0930619  39.678  61  59  48  
-2.66019  -0.221858  65.7514  154  152  141  
-7.54557  0.02549  38.4578  48  49  38  
-7.76636  0.0189694  41.2194  53  54  45  
-7.86337  -0.00299508  49.5181  63  62  52  
-7.8232  -0.00514119  50.2519  67  65  56  
-7.62597  -0.0125058  52.678  74  74  65  
-3.68292  0.0516108  31.775  58  55  49  
-6.94456  0.0620354  56.4869  56  55  46  
-3.71713  0.0936453  51.7681  52  49  41  
-2.37791  0.0827617  66.4832  57  54  47  
-7.39228  0.143917  38.5949  51  51  42  
-9.50076  0.118413  52.1757  70  70  61  
-3.74971  0.152207  33.7321  100  98  88  
-6.31513  0.148034  58.8248  89  87  78  
-3.01606  0.181403  60.4919  122  120  110  
-7.34051  0.204139  38.9579  130  131  122  
-7.5781  0.221669  47.2558  59  59  47  
-7.51915  0.224464  48.7854  66  65  58  
-7.38997  0.30009  48.9367  52  50  41  
-5.30226  0.428052  60.8755  92  91  79  
-6.63198  0.347481  33.7992  70  74  64  
-2.94861  0.546239  59.1317  84  83  71  
-6.63214  0.404186  34.3447  45  47  42  
-6.7547  0.414675  35.5529  51  50  47  
-6.94822  0.43413  37.812  56  56  48  
-6.47076  0.565408  53.997  61  60  50  
-2.80521  0.645357  60.0247  81  79  70  
-2.67029  0.655743  61.2419  56  54  46  
-2.52756  0.666042  62.4532  62  60  51  
-7.07665  0.57256  45.9108  47  48  39  
-7.01089  0.62333  44.1437  57  59  49  
-3.73517  0.644268  44.2645  64  63  53  
-4.7135  0.800419  60.6166  74  72  63  
-38.0506  1.84831  130.878  65  103  121  
-6.25465  0.594092  32.9186  51  51  46  
-6.43153  0.620737  34.7034  54  56  51  
-2.9277  0.970775  56.9158  58  57  46  
-2.61232  1.01499  59.9042  57  55  45  
-35.2638  2.20455  128.223  6  22  21  
-6.75147  0.801051  42.5079  57  58  47  
17.6028  1.55353  84.1231  171  164  153  
19.1998  1.62571  88.4433  70  63  52  
28.7347  1.44627  74.7984  104  95  87  
-6.64327  0.900479  44.444  69  70  60  
-6.60294  0.920682  45.6013  91  92  82  
-5.80489  1.05245  53.2865  67  65  57  
-4.4875  0.958972  50.517  131  130  120  
23.0763  2.24891  113.697  86  80  67  
-5.48643  0.643734  27.7369  68  71  61  
-6.18885  1.068  49.6978  62  60  52  
18.1937  1.84434  85.66  77  70  58  
-5.79372  0.744936  30.4901  42  43  37  
-8.26482  1.0303  45.394  85  86  78  
-3.60211  1.03795  43.4917  153  151  142  
-3.11088  1.39757  62.55  124  123  113  
-2.68601  1.33429  57.4594  115  113  103  
-2.55684  1.35875  58.6239  93  91  81  
-2.34904  1.39515  60.3597  71  67  59  
16.0945  1.8538  79.9024  85  80  67  
-6.4159  1.00684  39.999  62  62  53  
-7.02826  1.10972  46.0753  115  113  107  
-2.18962  1.507  61.1825  93  90  79  
-6.3499  1.12757  42.4777  87  87  78  
-6.33415  1.14653  43.2752  68  67  60  
-8.40091  2.45924  97.8872  61  59  49  
25.4863  3.13126  120.888  82  74  64  
-3.54656  1.22188  42.8181  75  73  64  
16.5072  2.18528  76.4275  98  93  80  
-16.3838  1.64229  56.5769  51  100  112  
-35.6119  3.8659  130.255  46  102  121  
-4.90582  0.819  24.9943  62  64  56  
-5.42153  0.935859  29.0034  67  68  59  
-3.10105  0.830407  25.0248  54  53  44  
-5.68357  1.49884  48.6812  76  76  65  
-2.73519  1.70274  54.8284  95  93  83  
-2.28825  1.81672  58.7866  77  76  67  
-38.3909  4.26569  136.501  14  20  23  
-6.02831  1.24159  37.5783  94  94  85  
-6.07201  1.30823  39.7848  47  47  38  
-6.07318  1.33346  40.6228  62  62  52  
23.406  3.68098  114.414  81  76  62  
25.3691  3.86334  120.322  79  75  63  
27.5011  4.05908  126.667  67  62  48  
-5.99517  1.42043  41.3955  71  70  61  
-3.39784  1.53696  44.3866  72  70  60  
-38.7493  4.73576  137.78  53  106  118  
-5.92148  1.37194  38.0195  61  59  50  
-3.49482  1.45403  39.9158  66  65  56  
-3.42412  1.55743  42.9657  105  103  96  
-3.99655  1.95533  55.8478  52  51  42  
-2.57681  1.96643  55.1093  72  70  62  
-2.72175  2.05552  52.89  50  48  36  
-5.64958  1.4277  34.8736  70  68  61  
-5.75156  1.57981  38.8721  97  96  84  
-10.9922  3.60184  91.5264  60  59  50  
-5.1238  1.88343  46.0229  61  62  53  
22.8079  4.4874  112.338  105  100  89  
27.8181  5.06117  127.198  82  76  65  
-18.0799  3.7961  91.9676  53  54  43  
-5.01159  1.18705  27.4926  62  65  57  
-3.42869  1.66993  39.1575  83  82  72  
-2.40393  2.30665  55.0955  48  45  35  
-2.06917  2.41354  57.7909  96  95  85  
-9.87714  1.57821  36.0912  49  104  118  
-4.53964  1.07883  23.8808  60  60  55  
-5.58949  1.57657  35.883  53  53  46  
-2.62721  2.29089  52.6513  111  108  98  
-0.0223584  2.20528  49.9913  82  81  68  
19.6482  3.97332  95.4778  91  87  77  
-4.62914  1.15327  24.7571  85  85  78  
-3.19226  1.28505  27.5243  95  94  87  
-2.44141  2.43059  54.0124  151  149  138  
-0.19649  2.79179  63.721  83  80  69  
22.7138  4.98928  111.868  119  113  102  
24.5739  5.22891  117.405  149  146  136  
-5.40539  1.58954  33.6869  106  108  97  
-5.51598  1.76615  37.6729  58  59  50  
-9.39944  3.97872  87.3314  109  107  100  
-3.38924  1.8002  38.0218  62  61  51  
-3.3715  1.85337  39.2067  66  64  56  
-1.4372  0.908728  17.5199  61  61  50  
22.6453  5.32012  111.526  79  73  61  
42.1902  9.55128  201.577  77  74  63  
-43.191  7.27618  150.24  52  81  89  
-44.7672  7.70173  154.04  40  65  73  
-37.1509  6.7555  135.147  25  74  82  
-14.3404  3.68016  72.3707  53  53  42  
-4.48372  1.2864  24.3828  46  48  42  
-5.21841  2.14513  41.8844  65  66  58  
-2.61743  2.60931  50.8511  45  43  31  
-2.1441  2.81565  55.0562  70  69  56  
-0.597124  3.28791  64.7269  57  52  45  
-41.4585  7.55812  146.625  13  16  25  
-5.12874  2.22643  42.2204  47  48  40  
-4.89113  2.35896  44.8726  57  55  47  
-2.32317  2.80848  53.2322  68  68  56  
-0.87545  3.29658  62.9082  71  69  59  
22.5346  5.81036  110.975  92  87  76  
43.0293  10.6166  204.045  76  72  61  
26.3117  6.37513  122.044  69  63  51  
0.11541  3.63191  67.5101  104  102  92  
-47.1598  8.77987  160.543  43  62  69  
-35.3633  7.11627  130.142  28  65  72  
-12.3533  4.37375  79.2004  78  80  71  
-5.17146  1.94804  34.5767  75  75  68  
-2.58053  2.80621  50.1301  68  66  55  
-1.98006  3.08299  55.2815  94  92  81  
-45.5038  8.85394  157.437  13  17  21  
-38.1674  7.76443  138.067  13  18  17  
-3.32244  1.01143  16.7817  58  59  47  
-4.209  1.35227  22.8851  52  51  47  
-2.95969  1.43622  24.1919  61  59  53  
-3.0345  1.50777  25.4654  61  59  54  
-0.171976  6.57756  116.443  71  67  58  
-35.2289  7.49513  129.654  50  82  97  
-4.53852  5.31406  90.9058  86  85  74  
-1.96131  3.22387  54.7533  90  88  78  
-0.826838  3.4191  59.0429  116  112  103  
-0.395652  2.09855  34.8432  79  79  69  
-46.2016  9.48915  159.857  9  19  23  
-38.1871  8.20073  138.145  15  21  20  
-8.79746  4.73899  79.435  57  56  48  
-0.31695  2.78574  47.2589  58  54  45  
0.0092184  3.94361  65.6851  87  85  73  
37.3293  11.0066  183.83  113  109  94  
-49.0793  10.1808  167.087  44  66  78  
-35.0359  7.85792  128.95  29  57  69  
-2.48147  3.09094  49.7132  76  74  64  
-3.50463  1.2062  18.2754  55  55  48  
-11.5067  3.89735  61.4608  75  77  69  
-9.15979  4.85507  77.2686  64  63  53  
-3.15538  1.8705  28.7757  84  85  74  
-3.87171  3.02071  47.8184  96  94  85  
-2.12711  3.33884  52.4939  67  65  56  
-0.934025  3.81733  60.2948  64  63  53  
-11.3429  4.00166  61.6137  82  83  73  
-5.45602  4.13386  63.4239  78  77  67  
-3.07451  2.69225  40.9883  83  82  73  
-2.29538  3.31062  50.7604  99  99  84  
-1.99059  3.4667  53.2359  91  89  77  
-0.0361617  4.50758  68.9016  81  79  69  
26.805  7.9191  122.541  78  72  61  
-48.6968  10.9951  167.589  47  71  80  
-4.71494  2.02133  29.954  75  74  67  
-46.7758  10.9311  162.744  40  76  91  
-43.0068  10.2188  152.132  47  108  118  
-39.2025  9.47442  141.032  28  75  88  
-5.37817  4.26979  62.5172  74  73  63  
-5.35663  4.58132  67.1811  154  152  142  
-3.04845  2.79552  40.6396  77  75  64  
-3.07095  1.94078  27.2199  104  105  95  
-3.21484  1.23925  16.7597  75  77  68  
-8.66385  5.16376  73.0816  57  57  47  
-2.46553  3.42469  47.8831  68  68  57  
-2.19733  3.59431  50.3286  60  58  50  
-2.01746  3.69479  51.7789  67  66  56  
-0.575437  3.20367  44.3812  79  77  67  
21.6001  7.60886  107.181  82  78  67  
18.9482  6.28373  87.5082  96  91  81  
-8.84194  5.18433  71.7525  60  59  47  
-3.09226  2.09464  28.1996  77  77  67  
-0.311644  3.44908  46.8468  73  71  61  
-0.0172881  3.62964  49.3666  61  59  48  
23.6571  8.18887  112.997  71  65  59  
-10.1719  4.73742  63.9286  57  56  47  
528.285  100.43  1369.15  80  71  62  
-8.72515  5.27138  69.9185  70  70  58  
-3.11197  2.77704  36.1793  58  57  46  
-0.899793  4.39621  58.0349  59  56  46  
-0.0932105  3.72906  48.654  62  60  51  
-6.87622  2.69273  34.417  65  68  56  
-2.10111  3.87344  49.9079  62  60  50  
-2.01257  3.96782  51.6733  65  65  51  
-3.06046  1.31377  16.0817  77  76  68  
-9.63095  4.86397  61.7381  152  151  140  
-9.54445  4.96659  63.0774  148  147  136  
-8.36548  5.39705  68.7524  63  63  54  
-3.6288  3.82192  49.1124  97  94  87  
-2.27974  3.95592  50.4604  70  69  59  
-2.08273  3.99299  49.4681  157  156  146  
-39.4098  11.4586  141.01  50  99  111  
-4.53702  3.4259  41.342  101  99  90  
0.103572  5.05338  61.7804  114  113  99  
-53.1616  15.15  182.989  55  102  113  
-42.8604  12.5586  151.649  56  88  100  
-4.3336  2.44553  28.9566  49  48  41  
-8.23688  5.49225  66.0012  57  56  46  
-2.92697  3.28901  39.0147  49  47  36  
-0.692337  3.64409  43.0715  65  65  55  
35.5508  14.5604  175.033  99  93  83  
18.7432  7.32299  89.3916  90  86  77  
-10.2239  4.40216  52.0214  68  69  60  
-3.06677  1.43652  16.3812  58  60  49  
-9.00571  5.00851  58.9055  54  54  46  
-7.85017  5.61004  66.2098  62  61  53  
-7.69418  5.64552  66.6465  65  65  56  
-2.37156  3.93699  46.0475  82  80  70  
-1.81552  4.32034  50.6476  72  70  61  
-0.362455  5.01812  59.05  76  74  63  
0.00672216  5.16043  60.7684  59  56  45  
-58.4639  17.1044  199.085  66  99  115  
-36.6039  11.3246  131.726  10  18  24  
-7.96089  3.79654  43.6008  100  102  91  
21.1037  9.05769  104.706  92  86  76  
8.86847  3.69865  43.9356  80  75  65  
-4.91651  5.34954  60.4597  40  36  32  
24.8219  10.1014  113.889  95  91  77  
-15.951  4.87142  54.2578  50  82  99  
-2.90545  3.43397  37.9323  47  42  33  
30.69  7.21459  79.9281  81  71  66  
-4.74794  2.20517  23.7522  61  60  53  
-4.14183  3.29571  35.6733  71  73  63  
-2.23454  4.23422  46.1919  66  65  53  
-60.8141  19.0879  207.101  67  101  110  
-29.4206  9.94174  107.726  49  86  95  
-2.47764  1.23179  12.8006  57  58  47  
-7.00631  5.93179  64.1461  95  95  86  
-2.06796  4.41056  47.3443  79  78  65  
-0.0142735  4.566  48.7569  75  72  60  
21.2678  9.70583  104.704  74  69  56  
-4.1222  3.39014  35.506  68  69  61  
-4.76069  5.76464  60.8954  151  150  143  
-48.0988  15.958  167.412  48  98  116  
-31.2105  10.7794  112.983  53  102  117  
-3.86626  2.36145  24.3034  47  46  39  
-8.09137  5.23744  54.5904  41  42  33  
-4.13263  3.15609  32.7264  61  62  50  
-0.849024  5.2466  54.6803  73  71  61  
-0.351701  5.48049  57.1737  68  65  55  
24.7881  10.9192  114.124  89  84  69  
-2.15695  1.11194  10.9626  50  50  43  
-2.94434  3.431  34.8641  48  45  36  
-4.65144  6.05844  61.9879  43  41  32  
-1.34545  3.49032  35.2951  80  77  67  
25.2224  6.33083  64.5449  75  69  60  
-7.30879  5.86008  59.2946  73  72  61  
-0.627638  4.34733  43.4567  65  62  51  
-0.267975  2.82509  27.8643  108  105  96  
-3.77901  1.93837  18.8958  55  57  46  
-0.287022  9.34741  93.3225  62  60  49  
-5.77229  3.17499  30.8089  54  55  48  
-29.555  19.7934  194.936  44  45  38  
20.9208  10.5058  102.992  74  71  61  
23.6325  11.2502  110.392  74  67  59  
-2.91123  2.7531  26.1749  69  69  59  
-4.6653  5.64527  54.2211  60  59  48  
-3.58569  7.68118  74.096  56  56  46  
-2.85891  8.25138  79.6865  119  116  104  
-4.54264  6.25788  59.2947  46  44  36  
-0.43097  6.85282  64.7507  70  69  58  
-0.0839705  5.9747  56.8315  61  59  49  
-1.09031  9.32735  87.6084  57  55  44  
24.2115  11.8758  111.468  78  72  60  
-7.10704  4.80261  44.2127  38  39  29  
-3.69335  2.61742  23.9143  42  42  33  
-3.76986  2.75227  25.1744  36  38  27  
-4.55681  6.0914  56.032  43  42  30  
24.0442  12.1373  110.698  71  65  55  
-3.86784  2.24049  19.8028  57  59  47  
-5.39447  3.28962  29.2763  41  41  33  
-2.26019  4.76342  42.5737  73  71  59  
-1.80642  5.17474  46.3184  63  63  53  
-0.367983  5.09805  45.3879  74  73  63  
-16.0028  6.15916  54.4512  53  96  107  
-2.89342  1.66968  14.4567  80  81  70  
-6.17699  6.37473  56.5359  56  54  44  
-4.52256  5.96282  52.5621  48  44  34  
-4.38793  6.62468  58.472  52  51  45  
-3.28887  8.20806  72.6519  60  59  49  
-0.657018  5.97651  52.8912  67  65  55  
0.00410902  6.31606  55.9547  50  49  37  
21.7698  12.2142  107.504  97  92  80  
22.7905  12.5878  110.822  88  82  70  
19.996  10.4747  92.2161  85  79  66  
-6.88036  5.21488  45.4495  42  42  33  
-4.51678  2.80386  23.8966  57  57  47  
-6.72215  5.0119  43.0694  56  57  44  
-6.8155  5.34434  45.9686  69  68  58  
-0.680572  4.99147  42.6389  47  46  32  
-6.51775  6.06234  51.558  72  71  60  
-3.46225  8.155  69.2909  69  67  56  
-2.69561  8.83032  75.1118  54  53  41  
5.70548  8.94815  76.056  58  55  44  
6.21681  9.17289  77.9936  64  61  50  
-4.58007  4.68605  39.5313  104  103  94  
-4.19646  4.59306  38.2545  96  94  82  
-4.44712  5.9687  49.8625  44  43  30  
-3.91428  3.09294  25.7557  91  93  82  
-6.00154  6.43854  53.3993  154  152  139  
-4.31091  7.05779  58.6824  49  47  38  
-3.1882  8.50391  70.4199  69  68  57  
-0.524749  10.1638  84.3949  59  57  47  
6.69852  9.57755  79.3663  156  152  139  
20.5344  12.0985  100.314  85  79  69  
23.4525  13.0113  107.974  72  66  55  
-2.15791  1.34156  10.6873  52  51  41  
-0.939841  7.20171  58.5449  83  81  71  
-4.63178  3.13868  25.1286  43  44  34  
-2.69642  2.73295  21.7741  54  55  42  
-3.45197  8.30112  66.9818  87  83  77  
-0.0841505  5.87164  47.116  76  73  61  
4.90503  7.71837  61.8929  68  64  57  
22.1678  12.8975  104.311  70  62  51  
-3.1367  2.04371  16.0498  70  70  58  
-4.11574  4.67129  36.9889  88  85  78  
-2.82117  3.99664  31.6402  60  60  49  
-4.28614  6.76013  53.7412  54  55  48  
-2.66077  4.47163  35.4595  78  76  68  
-2.79416  8.97742  71.6067  59  57  46  
11.6689  16.6838  133.333  89  86  73  
12.9835  11.88  94.5123  72  68  54  
11.0929  9.20499  73.221  68  64  54  
20.5374  15.1257  120.607  66  61  50  
22.3197  15.8487  126.425  79  75  64  
193.292  61.3427  489.418  101  92  84  
-3.53201  2.36174  18.3716  76  78  66  
-2.59698  9.18105  72.349  101  99  88  
25.1377  17.1478  135.196  65  59  47  
-6.0614  5.0028  38.8275  34  33  25  
-6.17228  5.30315  41.1876  40  40  32  
6.57655  10.0082  77.923  157  153  140  
4.91689  8.11799  62.0182  81  77  67  
-4.10252  2.92975  22.0638  56  58  48  
-3.67936  3.9411  29.6843  53  52  39  
-4.29476  6.36259  48.1569  54  55  44  
5.53295  9.70787  73.7562  69  66  55  
12.9049  12.3896  93.9293  68  65  54  
13.4995  12.6686  96.0644  67  64  54  
15.7489  13.6995  103.955  72  69  59  
20.29  15.6829  119.149  92  86  77  
21.1407  16.0423  121.904  96  89  82  
16.2708  12.0323  90.8638  89  85  73  
17.3977  12.5311  94.6614  106  101  90  
-2.63147  1.80715  13.3505  70  69  57  
-2.64339  4.61888  34.5066  71  69  61  
-3.63209  2.6136  19.2052  147  148  135  
-5.87246  5.23527  38.7782  38  40  32  
-0.612933  5.79918  42.7693  53  51  38  
-0.736445  10.5861  78.7299  152  150  139  
31.0255  20.3792  151.569  78  72  60  
-16.199  7.52273  55.1355  51  97  108  
15.7296  11.7269  86.0415  160  155  141  
170.32  60.6671  445.162  100  94  86  
-5.7873  5.38755  39.0193  57  57  47  
-3.41196  3.92361  28.3932  91  91  81  
5.77529  10.1845  73.907  60  56  45  
6.4331  10.5001  76.2262  60  53  43  
9.18154  9.23552  66.8126  70  65  54  
9.93824  9.55697  69.1655  68  65  56  
10.332  9.72171  70.3716  88  85  75  
20.035  16.2159  117.647  92  86  77  
-1.76282  1.24407  8.72266  45  44  37  
-2.10914  1.59434  11.2466  44  43  36  
-4.53876  7.21167  51.8662  69  69  56  
-4.17159  6.90563  49.389  51  53  39  
-4.13294  7.10401  50.8212  70  70  60  
-0.123901  11.0361  79.3581  75  73  60  
15.571  14.341  102.772  104  101  86  
23.4112  17.8371  128.06  86  82  70  
-5.58973  5.15983  36.5301  37  36  28  
-3.97117  7.63408  54.0466  63  62  46  
-1.1705  10.5574  75.0187  53  51  37  
24.2398  18.357  130.362  115  110  99  
25.2914  17.1158  121  84  80  71  
-3.36049  3.89361  27.2533  99  97  87  
5.7149  10.4186  73.1353  85  82  72  
29.6554  20.765  145.992  93  89  77  
35.3817  22.9878  161.755  60  54  44  
-1.95026  1.42763  9.72965  33  35  26  
-4.1609  6.74382  46.66  72  70  60  
-4.07987  7.24649  50.1696  48  47  39  
-2.60498  9.6121  66.7356  52  51  40  
-2.37122  1.77589  12.026  49  51  40  
-3.62893  2.863  19.5106  109  110  96  
-5.46916  6.29595  43.2416  61  60  48  
-5.16224  6.77152  46.5544  66  65  59  
-3.95054  7.68181  52.6426  60  58  46  
-0.930828  10.8365  74.5437  85  82  70  
-0.291327  8.0856  55.888  87  83  71  
12.8864  13.6043  93.7621  102  96  88  
13.4841  11.5356  79.1758  98  93  82  
20.9102  17.3928  119.489  77  74  63  
23.4848  18.5308  127.372  72  67  59  
-2.74411  2.10563  14.148  72  74  62  
21.6606  17.8863  121.603  74  69  60  
29.1827  21.1037  143.667  106  100  88  
-3.97718  7.58292  50.8713  153  153  140  
-3.88099  7.87078  52.8198  96  95  81  
0.0535887  8.15947  55.2292  120  117  104  
6.2698  11.0411  74.2956  57  55  44  
22.4217  18.3843  123.704  87  78  70  
192.046  85.181  574.649  73  66  58  
5.92775  10.9553  72.9441  56  50  42  
14.0691  14.5723  96.8537  54  51  40  
14.6587  14.4852  96.7964  100  97  86  
21.4953  18.1244  120.674  89  84  75  
23.1925  18.8861  125.787  95  90  78  
-5.12735  4.99563  32.831  41  40  31  
-3.74722  4.68135  30.6468  64  65  51  
-3.88136  7.86847  51.7215  55  53  43  
-2.91849  9.45917  62.2849  77  79  68  
-2.77033  9.61944  63.3515  67  69  58  
6.42884  12.6249  82.7876  70  68  53  
12.6046  13.9474  91.7157  72  67  55  
-1.66927  1.28921  8.25871  83  86  74  
-3.29827  2.71668  17.581  45  46  37  
-5.25415  7.0524  45.794  51  51  39  
-4.02405  7.32711  47.6465  63  62  50  
-2.01297  6.00073  39.0507  101  100  89  
18.9981  17.2674  112.585  89  82  71  
-2.45266  1.96398  12.5405  82  84  72  
-5.18685  6.35193  41.0024  53  54  39  
-1.11058  11.002  71.1084  67  63  54  
14.726  12.6956  81.9514  68  63  54  
28.4034  21.6266  139.835  73  68  58  
30.9268  22.6684  146.627  74  70  59  
-18.316  10.3617  66.2148  47  101  116  
-3.1435  9.26685  59.1816  66  64  53  
6.15584  11.4068  72.949  55  51  40  
-2.59683  2.1354  13.3873  146  144  134  
-2.91906  2.43721  15.3001  69  69  59  
4.63905  9.65932  60.8298  99  98  85  
15.1054  15.7662  99.6828  118  114  98  
159.529  75.2217  477.428  93  87  79  
-1.67278  1.34092  8.27717  90  88  75  
-2.05726  1.67111  10.3478  68  67  56  
-3.3261  2.8712  17.8791  40  41  32  
-5.01533  5.34611  33.4497  47  47  35  
-3.78972  5.03896  31.4092  70  68  58  
-1.66169  6.53764  40.9251  61  61  46  
7.68411  14.3839  89.7961  76  72  56  
13.8699  15.2534  95.4736  76  71  60  
14.4583  15.5626  97.4242  78  72  60  
-3.02709  2.59609  15.9992  70  71  59  
-9.19844  13.3134  82.8135  45  45  36  
-2.59901  5.0719  31.3631  111  109  97  
-2.75814  9.81369  60.8886  155  152  138  
-0.679817  8.36609  52.2089  101  100  89  
-0.0119054  10.7128  66.2857  57  55  45  
15.0236  15.9882  99.1409  96  93  77  
26.2762  20.1527  124.707  79  73  64  
19.1556  8.96527  55.9893  91  85  74  
-17.6168  10.0302  61.6099  40  97  107  
-2.396  2.01138  12.2509  42  42  30  
-2.71432  2.31332  14.109  45  45  34  
-2.70059  2.93825  17.9001  144  146  131  
-4.83201  6.68073  40.699  54  52  44  
12.8148  20.0702  122.462  73  70  59  
-1.69735  1.41025  8.40052  56  57  46  
-2.3832  2.03747  12.1857  67  67  57  
-3.64074  4.7803  28.6781  87  87  73  
-3.05278  9.53418  57.4703  73  72  59  
-2.9238  9.70119  58.4863  62  61  49  
-2.33738  10.3361  62.3524  47  44  34  
2.66193  5.52051  33.725  72  67  54  
12.3652  14.9362  89.9595  58  54  43  
13.7317  15.6872  94.5178  137  134  123  
14.307  15.9973  96.4002  94  91  80  
-5.8977  5.26954  31.3971  64  64  53  
-13.8652  15.3016  91.4923  63  63  52  
-3.89804  5.7305  34.0992  77  78  63  
-2.37779  4.78519  28.3656  105  105  93  
-2.63114  10.0685  60.1566  52  50  40  
-0.546907  11.6637  69.8046  48  45  36  
19.1122  18.6051  111.197  67  62  53  
5.29637  4.90417  29.7879  85  80  72  
-4.76444  6.60102  39.0992  100  102  85  
124.174  61.7491  366.676  89  82  73  
87.3433  42.1205  250.199  66  59  50  
-8.1392  4.95776  29.1533  17  19  17  
14.1912  16.3123  95.6169  80  73  66  
20.043  19.3414  113.516  60  55  45  
21.158  19.8853  116.733  153  149  138  
12.8414  10.2196  60.5724  64  58  48  
18.2084  18.5585  107.901  122  117  105  
-2.07238  1.82406  10.4271  36  37  27  
-2.65106  2.40591  13.7812  46  45  40  
-4.30732  4.56664  26.2565  70  71  60  
-3.81885  5.59195  32.0856  110  111  99  
-2.91932  9.83211  56.6226  68  65  53  
-1.8079  8.31859  47.71  48  47  34  
-0.916669  10.066  57.7974  70  65  58  
4.63115  11.429  65.8606  77  75  64  
7.80407  13.1165  75.6947  96  92  82  
12.7447  15.7513  90.6481  86  84  71  
13.8316  16.3614  94.1853  149  146  135  
18.8248  19.0052  109.525  69  62  50  
22.1123  20.6236  118.924  107  101  93  
20.2606  16.7465  97.0735  107  101  91  
30.5571  24.3731  140.734  101  95  86  
118.396  61.0563  351.218  105  100  89  
99.3666  49.8872  288.323  88  83  70  
-3.1349  2.96375  16.8508  48  47  40  
-4.67058  6.46116  36.9075  60  59  47  
-2.50992  5.22122  29.9915  93  92  80  
9.57937  19.1511  109.5  58  54  43  
14.9364  17.0926  97.5501  123  121  106  
98.5398  57.1478  326.794  71  67  53  
-12.682  13.7903  78.0472  70  69  61  
-4.57984  5.4003  30.538  68  69  57  
-3.86168  5.91065  33.3312  72  69  59  
-2.69504  10.1611  57.5021  44  43  33  
7.90435  13.3209  75.528  80  78  64  
13.9293  21.0612  118.986  95  89  78  
115.968  64.4868  365.749  71  64  56  
-12.457  13.9314  78.1673  65  64  54  
-4.4944  5.23756  29.3558  68  67  55  
-1.07616  1.56191  8.61822  63  61  51  
-0.179619  4.19607  23.246  106  104  94  
4.99379  11.8615  66.5826  65  64  51  
8.32308  13.4143  75.0887  69  64  54  
12.1367  15.7538  88.2862  63  58  48  
14.8466  17.2905  96.9626  81  76  65  
19.1776  16.178  90.9292  70  63  51  
-2.02892  2.94327  16.214  105  104  93  
13.4086  16.605  92.285  74  68  58  
18.2039  19.2117  106.885  74  70  59  
-5.80512  20.4143  112.588  65  63  51  
-2.3743  10.5979  58.4507  53  52  38  
-1.01243  11.7182  64.6978  79  77  66  
-0.663897  10.856  59.6909  48  46  36  
20.175  20.3477  112.279  67  62  49  
38.1877  37.5246  207.134  103  97  86  
27.4928  23.7732  131.341  74  68  56  
99.0804  58.5873  323.594  76  72  61  
76.7862  39.7708  220.02  77  70  59  
-18.9289  12.1187  66.21  41  70  86  
-2.11053  1.96104  10.6646  54  55  41  
-2.978  2.91344  15.8739  52  52  43  
-3.89444  6.42982  35.0483  68  67  55  
19.8027  16.8778  92.8462  156  150  140  
-2.63337  10.3637  56.1829  75  73  64  
-0.575018  11.1446  60.2545  61  57  48  
-0.3016  11.5391  62.4003  80  75  64  
11.3891  19.8424  107.34  63  60  46  
12.4474  20.9648  113.903  95  91  79  
20.5378  17.1618  93.2474  75  69  58  
91.294  55.7708  302.786  89  81  70  
-0.859929  0.792317  4.21515  51  52  40  
-2.19172  10.8677  58.4464  84  79  68  
-0.763034  8.70098  47.0184  85  84  71  
12.9994  16.8349  90.4388  93  90  80  
14.6199  17.7665  95.4796  67  61  49  
-2.35286  1.53454  8.11048  52  101  108  
-1.32345  1.32982  7.02496  89  89  80  
-0.527812  7.86711  41.8202  71  68  58  
5.48827  12.0367  63.9788  75  71  60  
17.8572  19.6592  104.85  58  54  44  
18.3951  18.7978  99.8972  68  61  51  
36.5412  22.7383  121.383  84  76  66  
-2.30097  2.21652  11.6774  89  89  77  
-3.8712  6.51607  34.3593  77  76  65  
-0.905322  10.8594  57.2576  95  94  81  
6.99737  18.4011  97.3631  108  105  93  
13.0017  21.6148  114.089  84  80  73  
11.1676  15.3306  81.316  78  75  65  
24.073  22.3107  117.691  73  69  55  
45.0388  39.9104  210.618  72  66  54  
95.0737  58.038  307.415  75  67  58  
144.277  80.9944  427.729  92  85  75  
18.6736  20.3352  106.709  94  89  78  
19.3273  20.6755  108.508  71  66  54  
218.806  151.648  795.67  102  95  84  
-2.54403  1.70461  8.80542  16  18  21  
11.627  16.4592  85.5434  68  65  52  
13.8964  17.816  92.6451  76  71  57  
44.1228  30.6555  158.915  94  88  80  
69.7227  47.0966  245.19  76  70  63  
-3.81745  6.23713  32.0962  62  64  53  
-2.04987  8.73272  44.8901  78  76  68  
14.0704  18.7308  96.2263  148  142  132  
30.7496  22.0966  114.495  101  94  81  
-3.08004  3.00762  15.3611  85  86  76  
-4.87736  4.91857  25.1362  79  79  70  
-2.95566  3.08379  15.7582  73  73  63  
-3.90403  4.60758  23.5709  41  43  32  
-3.16712  4.12924  21.0535  54  53  43  
-3.74488  5.85921  29.9064  50  52  41  
-3.65317  8.62423  44.094  65  64  51  
-0.782595  12.1657  62.3686  60  56  46  
-0.389061  11.9467  61.0191  79  77  67  
5.20914  12.7596  65.3816  100  98  88  
7.43991  13.9209  71.1197  60  57  45  
31.0266  34.9267  178.9  106  100  89  
15.566  16.8861  86.8519  93  88  77  
27.1667  24.7505  126.968  71  65  57  
28.2523  25.4643  130.132  68  62  54  
87.3265  55.6311  285.248  84  78  71  
94.0132  57.8187  296.586  64  57  49  
-3.85787  6.75944  34.2491  54  53  42  
-5.06573  20.5887  104.582  76  75  64  
5.73722  13.1328  66.7797  76  72  62  
14.2735  23.4046  118.699  82  79  68  
17.221  22.1255  112.789  107  104  91  
55.5957  40.7228  206.868  75  69  60  
89.4271  52.5994  267.851  85  78  71  
-3.10713  2.13  10.6758  6  16  21  
-0.56568  11.8364  59.5061  48  46  37  
8.1493  14.6103  73.4951  93  89  75  
-4.49014  4.56202  22.7743  48  45  39  
-6.74429  7.1971  35.9432  59  58  51  
-3.71257  5.80176  28.9275  65  62  54  
4.3796  12.4509  62.2949  65  62  52  
11.7116  17.0489  85.1815  77  74  62  
-3.05429  3.94374  19.495  53  52  43  
-3.24484  4.36458  21.5798  65  66  53  
