738
-12.1619  -38.471  95.5795  249  245  238  
-9.67641  -32.8755  83.2813  239  245  242  
-7.70539  -48.2382  123.946  198  217  236  
-16.1611  -54.0632  140.456  198  207  220  
0.309178  -15.0867  39.5186  217  226  242  
-1.77136  -25.6435  68.0722  250  243  236  
-0.964729  -24.146  64.3601  255  250  239  
-1.84857  -26.7238  75.9612  215  211  216  
-2.55366  -22.2584  63.5718  236  235  244  
-0.310483  -21.9303  67.4762  241  240  247  
4.69082  -10.1873  31.3342  235  234  241  
4.47542  -11.949  36.9143  253  249  242  
4.95205  -12.2179  38.1475  244  238  245  
4.11402  -9.87387  31.4268  234  228  225  
3.59526  -12.2106  39.6692  246  245  249  
6.17759  -8.31048  27.9396  182  148  92  
4.52223  -8.19607  28.6624  242  239  244  
5.08742  -8.80964  31.6614  249  246  245  
3.8151  -7.46934  26.9714  251  247  247  
2.84062  -9.90275  39.078  118  84  34  
3.44359  -10.4198  41.1635  162  131  75  
4.79709  -8.85959  35.4066  145  110  59  
3.96841  -7.11005  28.3858  126  90  38  
3.64581  -6.97681  29.9585  242  222  178  
4.09976  -6.65401  29.1653  246  228  181  
3.55125  -7.08075  33.5426  202  191  165  
-14.2884  -11.5164  55.5319  79  53  20  
2.42519  -6.96662  34.003  205  199  170  
3.16813  -9.00441  45.0242  214  202  165  
3.36457  -6.29959  32.2329  218  196  137  
4.31989  -7.4397  38.0381  201  182  129  
4.4148  -5.97519  31.079  209  191  148  
3.58486  -5.95686  31.4909  209  194  151  
5.58124  -4.98964  26.3261  192  176  153  
4.13769  -5.7327  30.821  205  188  139  
-1.14453  -6.64857  36.6798  183  172  134  
-2.9241  -10.2631  63.7636  160  146  105  
5.34583  -3.44039  22.1276  196  166  114  
-5.55043  -15.8715  106.915  163  145  94  
-1.42158  -3.81178  28.7036  144  122  69  
-0.564374  -5.33445  41.4989  142  124  85  
-6.33113  -4.33916  39.8334  132  106  45  
4.25801  -2.57121  23.4986  171  142  94  
-3.72915  -8.4007  79.0882  123  104  56  
4.20603  -2.17362  25.1988  150  118  65  
1.64311  -2.68087  34.2288  127  100  48  
-3.84445  -2.61383  35.6282  129  100  51  
4.18583  -2.08566  28.4607  171  137  80  
0.277483  -2.48516  35.3428  117  89  42  
2.92613  -1.90581  32.9091  144  111  50  
-7.00419  -7.65035  135.943  107  79  32  
3.80634  -1.46297  26.8556  157  120  58  
5.20005  -1.2763  23.9526  189  149  85  
1.88882  -1.4715  30.3164  141  111  57  
-0.971125  -2.01061  47.6769  129  99  51  
4.15131  -0.844253  25.3408  152  116  56  
4.7367  -0.543339  20.22  162  125  64  
4.57718  -0.471186  19.1313  155  117  56  
0.64782  -0.128624  20.3609  131  99  45  
-2.14784  -0.138601  30.4823  118  85  37  
1.71192  0.00300786  23.7472  128  95  41  
4.82849  0.0427763  22.876  178  137  71  
3.55134  0.0772082  21.6087  151  114  52  
1.96969  0.129021  18.9239  139  104  48  
1.51027  0.226761  18.2505  134  100  43  
2.09762  0.358989  21.6935  129  94  39  
1.03223  0.494443  26.5435  117  84  34  
0.0599255  0.280139  12.8052  140  162  153  
4.07146  0.495605  22.0478  195  214  200  
-0.100524  0.297452  13.532  115  87  46  
0.00197114  0.508602  21.7398  147  169  156  
0.20517  0.496954  21.306  146  170  161  
2.48229  0.498972  21.1694  196  212  196  
3.12047  0.533899  22.6876  192  222  214  
3.74809  0.519678  21.5675  189  214  207  
4.27805  0.56142  24.0194  123  111  79  
3.69035  0.738293  29.0982  215  231  210  
4.19676  0.567838  22.165  113  96  55  
-2.75421  1.4208  53.3644  171  189  178  
-1.28421  1.21035  45.7866  176  208  203  
-0.0977834  0.553352  20.8294  140  156  141  
3.25332  0.61024  22.8731  114  97  56  
-4.11088  1.16367  41.0595  165  204  195  
3.69128  0.540065  18.8835  182  205  197  
4.81253  0.648628  22.6268  164  185  173  
4.96489  0.649393  22.6791  179  194  181  
-14.4831  1.76199  58.6371  151  175  166  
-17.3131  2.20289  75.3586  138  158  135  
0.0313173  0.239026  8.67318  95  89  60  
0.0796742  0.257262  9.2925  100  91  59  
0.3984  0.359553  12.0952  184  206  198  
3.63576  0.6481  21.2992  167  189  178  
3.82434  0.657278  21.6168  195  223  220  
4.44644  0.678371  22.3791  207  214  189  
4.73233  0.683251  22.58  164  180  160  
4.34636  0.584392  19.4436  169  179  156  
-1.38422  1.38276  44.3639  67  79  61  
-0.152864  0.60483  19.3231  126  146  134  
0.00523205  0.853662  27.7706  107  105  73  
2.69619  0.678285  21.5518  192  228  225  
3.80301  0.926547  29.265  205  224  206  
-15.7477  2.26398  69.9731  153  182  165  
-4.69517  1.47259  45.5201  59  63  48  
-3.88874  1.78232  53.9359  117  139  125  
-3.68838  1.7667  53.4959  135  164  157  
-1.80808  1.51866  46.2914  137  165  161  
0.82871  0.435796  13.2385  96  86  57  
2.8552  1.10938  33.8467  189  218  213  
2.42023  0.716643  22.144  203  224  209  
2.43701  0.686988  20.7727  195  221  215  
4.48442  0.749333  22.3943  182  185  159  
-9.2815  2.36537  69.0792  69  80  64  
-8.4144  2.21913  64.8896  128  158  152  
-5.84963  1.60706  46.0838  151  172  150  
-5.5976  1.71624  50.456  118  140  128  
-2.84951  1.18618  34.3863  177  212  203  
-2.46278  1.05824  31.4806  64  65  48  
-1.9619  1.59918  46.4842  109  134  125  
-0.0343119  0.458418  13.4476  111  111  86  
0.452031  0.534476  15.6803  84  87  71  
0.804995  0.738219  21.5035  102  97  60  
1.40013  0.906064  26.3502  98  100  77  
3.37432  0.793705  22.9639  102  96  65  
3.56209  0.803135  23.2548  201  208  186  
3.62364  0.74656  21.2261  122  116  83  
3.98125  0.667723  19.1442  177  210  206  
4.12734  0.671487  19.2691  124  128  109  
4.95942  0.791483  22.6533  112  115  87  
-9.72189  1.46342  40.3914  59  63  41  
-14.4358  2.34384  64.5701  175  215  200  
-14.3667  2.31305  65.195  53  53  34  
-10.0421  1.82574  50.5974  101  134  121  
-9.24028  1.66603  47.2827  117  143  127  
-5.01789  1.31199  36.0211  141  180  180  
-4.76676  1.93327  53.2669  155  196  198  
-3.08336  1.82301  50.4773  155  180  170  
-1.27545  0.884645  24.77  171  209  205  
2.88038  0.793828  21.9274  117  107  78  
4.25558  0.859776  23.8894  120  107  74  
4.53043  0.860954  23.9628  126  113  83  
4.37227  0.706465  19.423  203  220  202  
-17.108  2.76669  74.4746  45  50  36  
-11.7776  2.07836  56.2325  152  186  167  
-17.0293  3.1027  83.7914  62  57  34  
-13.0041  2.51604  68.1642  143  171  158  
-7.27639  2.19864  58.9535  148  173  165  
0.669764  0.73121  19.5209  186  234  238  
0.643277  0.479811  12.7016  175  212  213  
0.873203  0.550208  14.531  203  241  237  
3.22264  0.854923  22.6508  141  111  65  
-7.68705  1.91913  49.1997  53  69  57  
-6.5443  2.13996  55.1137  80  80  59  
-2.24195  1.14419  29.8489  178  216  210  
-3.27507  1.95507  49.7565  61  61  45  
-0.0510842  0.623686  15.9489  115  115  89  
0.561741  0.703198  18.0265  192  237  238  
0.85331  0.820461  21.001  181  214  210  
1.48522  1.03193  26.3805  197  241  241  
1.92664  1.14772  29.3402  184  211  195  
-13.1145  2.44381  60.8079  181  233  227  
-11.8284  2.54459  63.5637  165  199  190  
-12.2766  4.74596  117.26  60  55  35  
-2.75325  1.93879  47.5071  181  213  203  
-1.83383  1.76702  43.4271  171  210  207  
1.96408  0.886366  21.5236  95  102  80  
3.62508  1.42581  35.1591  110  117  96  
-13.4186  2.33626  55.7641  66  81  63  
-15.0736  2.82253  67.4539  147  192  187  
-8.92631  1.96743  46.4364  59  60  44  
-7.79638  2.08409  49.4029  73  84  71  
-4.76611  1.54076  36.7548  57  54  40  
-3.39238  1.24687  29.3032  169  211  206  
1.37988  1.06505  25.1972  85  87  66  
1.74766  1.18081  27.9334  97  79  43  
4.68358  0.965438  22.513  187  220  216  
4.11785  0.821974  19.2234  131  120  88  
0.334882  0.478728  11.2483  82  75  50  
0.568644  0.646604  15.1051  90  78  44  
3.3716  1.5221  34.8057  104  104  79  
2.85861  0.959795  21.7564  108  100  72  
4.24788  1.04618  23.8444  116  107  78  
-14.0081  2.59169  57.4689  188  240  236  
-11.3659  2.45368  54.6806  49  52  29  
-16.3996  3.65332  81.3319  146  199  198  
-11.1213  2.72042  60.7898  130  158  145  
-1.97413  0.77555  17.0696  142  165  153  
-2.62764  2.06367  45.3242  182  208  200  
0.176676  0.496612  11.014  176  209  205  
4.36335  0.888859  19.3821  197  210  189  
-14.8145  3.49446  75.2166  88  93  69  
-7.50364  2.12818  46.119  154  204  207  
-2.85482  2.14614  45.5271  83  97  89  
-0.00132523  0.589923  12.5685  92  77  42  
0.122534  0.512532  10.9652  96  102  80  
0.554234  0.755206  16.0997  183  210  200  
0.852122  0.670723  14.3702  198  215  199  
4.72346  1.07282  22.5358  157  176  163  
-10.9148  2.30299  47.8438  110  129  113  
-2.35927  1.46851  30.1572  109  135  130  
-1.68907  1.94092  39.9705  176  211  212  
0.0231626  0.311708  6.52081  81  74  49  
0.0853141  0.52078  10.766  94  101  81  
3.10326  1.08858  22.2948  200  220  207  
3.54217  1.12714  23.1196  197  221  204  
4.44435  1.16053  23.8999  200  212  192  
4.77731  1.15773  23.8861  196  218  199  
-12.5876  3.29765  66.5471  64  80  69  
-10.7795  2.94118  59.4351  127  143  131  
-4.8349  1.72027  33.9144  65  59  35  
-4.40123  1.94549  38.4622  189  223  221  
-3.19917  2.2812  45.3109  87  73  42  
-2.50949  2.1746  43.2706  179  212  203  
-1.26462  1.84009  36.7526  78  66  37  
1.94791  0.938044  18.5559  193  226  220  
2.67732  1.12165  22.5497  199  221  206  
2.84555  1.09236  21.6534  205  238  223  
4.24542  1.19584  23.8295  191  220  206  
4.24765  0.989876  19.8439  161  184  165  
4.18425  0.975151  19.2523  162  171  148  
5.20577  1.17937  23.6298  174  189  162  
-19.7126  4.24456  82.4585  55  61  41  
-13.3425  4.33302  83.6788  68  76  55  
-3.06444  1.45607  28.4232  56  55  41  
-0.691937  0.788224  15.1007  72  62  38  
-0.038442  0.583124  11.2708  129  165  163  
-4.49488  2.05508  38.2188  81  80  60  
-1.53085  2.0035  37.6078  160  190  178  
-9.10678  2.53031  46.616  66  71  42  
-7.42173  2.19839  40.5817  125  140  117  
-4.16384  2.04041  36.8845  153  175  162  
-6.72979  4.1871  76.8745  164  201  199  
-4.24567  3.13693  57.7263  150  176  171  
-2.48156  2.29016  41.6422  165  180  162  
0.0247467  0.825344  15.2044  170  185  168  
4.66129  1.07692  19.4903  169  127  62  
-13.455  3.44805  61.5064  110  141  128  
-9.57187  2.69171  47.4572  116  150  147  
-8.55385  3.54431  62.919  157  197  192  
-6.52693  3.01083  53.5553  159  199  196  
-8.84112  5.12059  91.2507  194  214  195  
-1.88352  1.51258  26.7449  135  164  158  
-2.60867  2.35277  41.571  133  154  139  
-0.970382  1.83912  32.6463  115  108  79  
-10.924  3.44706  59.2057  112  123  102  
-8.2227  2.81514  49.1459  153  195  192  
-9.77005  3.939  67.9498  150  182  170  
-4.85866  2.59954  45.066  140  167  160  
-3.20148  2.79471  48.6717  152  171  149  
0.200987  0.463463  8.01008  119  85  32  
2.48109  1.83998  31.7274  126  89  31  
-13.4941  3.28734  55.3603  175  207  190  
-12.6632  3.4768  58.726  151  189  181  
-8.8585  2.69147  44.9665  126  160  155  
-7.96428  2.51753  42.1035  142  167  145  
-5.73175  3.21142  48.9101  113  81  34  
-2.2129  2.01649  26.6258  112  80  36  
2.97838  2.50567  22.6684  138  102  42  
5.04984  2.62454  23.4107  222  196  149  
4.82997  2.66276  23.4051  210  190  151  
4.64948  2.30225  20.1105  207  186  149  
4.88587  4.04268  34.7316  232  219  182  
2.94984  4.94059  41.971  236  213  171  
4.72269  4.43158  37.7905  229  219  190  
3.96194  2.97486  24.8634  145  107  47  
-5.28884  7.38686  60.477  249  235  201  
-3.66796  6.23536  51.0794  231  208  157  
-23.1766  11.196  88.296  211  183  136  
-16.7202  8.69225  68.6014  234  211  164  
5.10294  3.04686  23.8361  172  143  95  
4.43387  2.55774  19.9834  159  138  97  
-15.8191  8.43388  65.748  221  196  147  
5.14811  3.2023  24.5985  191  165  119  
2.28782  5.52179  41.8373  234  225  196  
3.57463  6.70579  50.919  240  234  197  
4.63993  2.68267  20.3486  155  139  104  
4.40021  3.28095  23.8513  172  154  117  
5.10788  3.48655  24.9692  184  146  84  
2.4003  3.12104  21.917  225  204  169  
4.77784  2.8804  20.3963  214  200  165  
1.00418  11.5025  80.8902  196  169  122  
-0.803681  3.59604  24.4858  187  166  124  
3.51793  9.39993  64.4802  230  222  197  
3.3596  3.92684  26.9221  126  109  71  
-4.14979  5.38254  36.3686  168  142  97  
-3.68002  5.12556  34.6398  217  195  152  
-1.43309  3.55947  23.9252  246  236  201  
-0.78684  4.68958  31.8582  232  213  163  
2.56322  4.10879  27.6625  165  144  108  
-7.13555  6.36942  42.695  181  155  114  
-1.75975  5.80654  39.0283  229  215  175  
-11.0278  9.51204  63.5215  198  170  124  
-6.35743  6.01643  39.911  200  170  113  
-5.23211  8.69856  57.7914  109  85  42  
-1.04585  3.74805  24.7049  137  105  61  
-13.3264  8.04127  52.5199  128  100  53  
-9.61316  7.77396  51.2752  213  184  130  
-1.14607  22.263  146.887  217  198  161  
-8.64748  6.53821  42.5902  228  207  169  
-8.90845  7.46553  48.7359  134  104  61  
-2.3028  2.8529  18.2414  181  159  126  
1.92219  8.20108  53.5535  209  179  132  
3.18412  4.34767  27.9844  154  126  79  
3.26314  4.33529  27.9102  154  139  108  
-8.25764  8.72122  55.6661  207  185  148  
2.3241  7.04089  45.0631  136  107  59  
3.65763  3.16917  20.0089  192  180  154  
1.26901  11.685  74.0415  128  106  71  
3.05791  4.51003  28.4454  176  141  86  
4.99903  6.56559  41.5764  154  141  119  
1.48143  10.8167  67.8668  173  158  138  
2.20198  4.18301  25.9286  163  146  108  
-3.17198  5.2321  32.253  133  110  76  
-4.11692  28.3881  176.277  246  232  194  
0.268303  5.60491  34.8271  155  126  83  
-7.5584  8.57618  52.6233  174  149  105  
-3.00811  5.17596  31.5997  134  110  85  
-7.19073  6.97116  42.2339  122  92  55  
-4.74676  25.0187  152.283  138  112  65  
-6.87301  6.85319  41.1263  136  113  85  
-0.538897  5.34841  32.2108  166  146  109  
1.61838  10.7349  64.8132  144  130  105  
2.19892  8.32466  50.262  195  170  128  
5.08695  6.74663  40.7154  173  164  140  
-8.23458  7.74321  46.2515  154  127  82  
-1.41134  6.3686  37.9915  149  123  78  
0.10543  4.70315  28.061  187  157  109  
-6.68671  6.85874  40.3914  126  110  81  
-4.45247  8.368  49.1323  151  133  110  
-1.50425  6.69997  38.8748  138  106  64  
4.98011  8.44544  49.0968  216  191  144  
-8.81856  8.38657  48.2673  191  166  119  
5.85581  8.06997  46.3453  152  136  103  
4.94438  3.63012  20.8392  231  216  180  
0.0712042  5.59861  31.791  170  139  91  
4.13119  4.83808  27.5832  151  110  48  
1.69306  11.2545  63.7425  147  135  108  
2.28686  8.90592  50.4422  236  213  171  
-0.772594  5.29763  29.4748  115  81  31  
-14.8262  10.8685  60.4481  99  65  19  
-6.34997  8.53324  47.3218  185  165  131  
-4.35771  8.80034  48.9595  150  135  104  
-13.7553  9.52577  52.4212  119  86  29  
3.75949  5.48533  29.7828  209  200  167  
5.04906  11.0606  59.9473  160  147  121  
5.45537  4.75454  25.7019  163  132  86  
4.29698  3.43144  18.4863  187  165  126  
-0.486839  6.05097  32.3016  213  203  185  
0.132501  6.41506  34.3072  161  133  94  
1.63102  12.1196  65.1812  147  126  90  
-2.7467  5.74813  30.3896  175  156  117  
2.27658  9.74678  51.9851  211  183  137  
5.52986  4.79414  25.4895  165  134  82  
4.81418  4.03755  21.4273  176  149  103  
6.07436  10.7141  56.4703  170  144  102  
4.77339  4.09449  21.547  178  153  105  
-4.42763  7.55079  39.4628  186  156  105  
-4.14409  6.05336  31.2732  174  161  137  
0.657763  16.0573  83.546  145  117  75  
1.48626  13.0335  67.8165  170  149  109  
5.14664  8.44856  43.945  174  145  94  
-4.20573  7.62414  38.5736  187  157  114  
-3.99289  7.51281  37.7096  145  119  79  
-3.78668  7.34239  36.8546  124  97  51  
-3.58802  7.1764  36.0217  165  135  81  
2.76719  5.88617  29.6204  190  175  151  
-12.2564  10.3859  51.6082  123  95  56  
-0.37234  9.50458  47.5238  169  158  132  
1.43742  7.8197  39.0002  199  168  122  
4.10293  6.4671  32.1338  130  102  56  
-14.6959  11.0074  54.3901  121  92  46  
4.52119  5.57174  27.5973  157  119  57  
4.46805  4.28363  21.2062  201  190  162  
4.0308  6.27241  30.8005  245  238  209  
4.27881  5.94288  29.195  225  213  166  
4.57334  5.57246  27.3913  165  128  66  
5.65164  5.19464  25.503  229  201  144  
-5.38426  8.87684  43.1811  168  155  137  
5.25015  18.6254  90.9731  236  223  188  
5.10473  14.2556  69.6223  222  205  165  
3.8294  6.64399  32.3664  216  194  152  
5.139  9.56278  46.3529  187  164  122  
0.1804  6.85201  32.8966  185  168  134  
1.61299  13.3647  64.3107  183  159  118  
-3.06735  7.15636  34.0346  107  74  33  
-1.96679  5.95608  28.1994  227  209  168  
-2.21732  8.07929  38.5457  202  188  163  
-1.42957  7.16411  34.1769  224  207  170  
-2.74125  6.92744  32.7006  227  213  180  
3.83304  7.04025  33.2834  150  113  51  
-4.34734  5.8112  27.0414  221  206  173  
-6.99157  10.4029  48.7182  207  184  144  
-5.43373  11.7695  55.319  196  168  126  
-12.3633  12.6082  58.6503  188  171  127  
-5.35789  5.72012  26.3435  216  192  155  
-8.86398  10.2581  47.7334  250  228  186  
-10.3617  9.93181  45.7478  237  219  182  
-29.8466  21.9135  100.523  199  177  130  
-19.6684  15.4225  70.4672  223  198  150  
-5.20623  6.64296  28.9711  100  68  22  
-7.22539  8.56053  36.7525  95  65  22  
-8.34085  10.6169  45.7012  99  68  22  
-5.20467  9.83289  42.3096  99  66  22  
0.55514  7.81448  33.5  123  87  32  
-0.482506  9.80827  41.3582  116  81  31  
4.64084  6.93978  29.1773  165  128  68  
-1.02232  11.2732  42.3297  125  87  37  
4.43472  9.178  33.9059  144  105  42  
1.57886  16.0088  58.8775  221  204  164  
-2.05887  8.57639  31.1081  245  229  182  
4.99044  7.65526  27.813  156  115  49  
3.56879  10.1486  36.7073  211  200  165  
-4.33831  8.79715  31.3302  237  223  178  
-2.87171  9.80455  35.0769  228  218  187  
1.52805  10.3713  37.2893  235  224  192  
1.39029  10.7193  38.3243  114  80  31  
-24.5313  25.629  90.7619  235  220  168  
-0.616932  9.75885  34.4543  246  235  199  
1.59305  12.1794  42.99  165  143  97  
-5.024  11.8197  41.4406  237  211  163  
-1.87941  9.00828  31.4314  121  88  44  
-6.32901  7.30999  25.0806  73  41  2  
-2.77537  9.53104  33.2335  110  84  45  
-1.66859  13.1369  45.565  215  197  152  
1.82005  15.8075  54.9786  253  243  208  
-10.2186  11.7738  40.2872  250  227  179  
-12.3433  14.6474  50.3757  214  194  147  
-7.59621  12.3311  42.3953  244  219  166  
4.11056  6.55565  22.5313  159  118  51  
3.21659  11.7422  40.1944  130  106  70  
1.96527  9.77678  33.2725  129  100  62  
-59.7369  56.56  191.179  231  210  161  
-0.558517  15.485  52.4227  232  218  178  
0.59135  8.79145  29.7334  122  93  55  
-9.88557  11.7735  39.2164  75  43  6  
0.0417382  11.7083  39.3618  118  96  60  
4.54474  7.29947  24.5301  159  118  50  
-23.6463  29.4009  97.001  220  207  165  
3.20602  12.2003  40.0486  130  107  60  
-10.3667  14.8449  48.1128  124  88  39  
-9.74706  14.4865  46.9636  113  79  35  
-5.0801  12.9222  41.9504  233  220  181  
-3.07646  10.7263  34.9155  125  87  38  
-2.39502  13.2418  43.1605  105  82  28  
1.22215  18.115  59.1397  126  90  38  
1.41311  11.9096  38.8858  99  66  20  
2.06722  10.5754  34.5341  142  112  65  
3.90998  8.92344  29.13  144  109  54  
-16.3055  16.237  52.2366  229  204  151  
-15.4314  20.1092  65.0619  115  83  33  
-4.43879  12.4836  40.3315  106  74  28  
0.0434612  12.2475  39.7135  130  109  63  
4.28389  8.1151  26.3634  167  126  62  
-18.2421  22.4127  72.1225  242  227  176  
-3.26714  11.545  37.1274  137  101  48  
-0.688797  13.2953  42.6636  229  212  170  
1.3664  12.2152  39.2818  250  242  207  
-8.8779  11.7817  37.0963  100  65  23  
-5.92132  14.1996  44.8367  125  93  38  
-21.3713  23.5535  73.5926  141  111  66  
-8.17993  14.2483  44.5268  99  68  24  
-5.92553  12.1092  37.7468  201  182  137  
4.38134  7.05523  22.1154  162  122  54  
-13.8841  16.7706  51.9703  106  68  18  
-9.52255  11.5469  36.1294  132  100  50  
-1.1696  10.5477  32.5688  243  223  182  
2.85894  9.20801  28.6057  245  232  193  
-9.43512  17.6747  54.5471  247  225  174  
1.37185  12.7457  39.4034  251  241  202  
1.30232  9.85879  30.4798  246  235  210  
-34.8842  38.7097  118.818  222  207  161  
-11.1425  15.2672  46.5444  113  74  25  
-4.28277  12.8774  39.492  160  134  93  
-0.521487  11.6205  35.7026  229  218  187  
1.99557  16.4402  50.581  112  75  27  
0.883604  13.9225  42.6266  155  116  64  
-2.69564  14.7436  44.8484  111  71  23  
-0.210853  13.5555  41.2322  128  97  50  
2.00692  11.6001  35.3532  128  88  31  
-8.5594  13.312  40.1091  103  73  27  
1.15857  17.7897  53.7988  135  98  43  
-1.45726  15.2403  45.8943  237  223  181  
2.98742  9.31511  28.1207  255  253  211  
1.30911  11.7162  35.1626  245  240  207  
-10.8104  17.3884  51.7767  244  231  190  
1.01359  12.196  36.4261  255  248  210  
-7.53238  16.841  49.9425  241  225  187  
-10.5967  17.3363  51.1415  233  208  158  
-4.9988  12.0324  35.4244  124  86  37  
1.48803  14.7653  43.6824  138  108  63  
-9.4587  15.3469  44.9019  102  64  19  
-8.52656  14.8325  43.4188  130  94  50  
-18.7921  23.2747  67.8888  126  81  37  
3.10187  9.96165  28.9897  240  234  199  
-5.15043  14.7606  42.5957  121  84  25  
-4.86897  14.6226  41.9157  249  236  192  
-11.8456  16.3486  46.5512  110  70  19  
-2.09686  14.9235  42.7534  129  98  49  
2.09804  12.1946  34.9986  133  102  53  
2.5782  10.8642  31.1769  145  103  44  
-4.28143  17.9777  51.2522  129  94  47  
-2.41541  12.6156  35.8809  144  110  63  
1.23239  10.2696  29.3154  145  106  55  
-11.025  12.2342  34.2953  179  154  113  
-16.7212  23.9174  67.8549  236  221  161  
-4.5401  14.371  40.7363  157  131  84  
0.682656  11.1656  31.5845  162  128  90  
1.52623  13.6152  38.5527  255  255  224  
-10.2944  15.2033  42.4217  115  81  38  
-5.73958  13.3391  37.3575  238  229  196  
1.35425  10.4727  29.4412  122  79  26  
2.58585  11.0905  31.2659  145  106  48  
-4.75007  14.8219  41.4597  255  255  233  
-4.28108  18.3029  51.2635  118  86  36  
-3.10079  16.7034  46.7941  131  103  61  
-2.10218  15.3063  42.8885  119  94  46  
3.43254  9.30528  26.124  159  118  59  
2.94775  10.3868  29.0283  255  251  214  
-13.2184  16.2958  44.8705  206  188  144  
-9.91343  17.6857  48.9811  110  79  33  
1.66893  13.5392  37.6714  255  251  221  
1.00058  11.9419  33.0814  255  248  215  
1.2607  11.4725  31.7825  123  81  30  
-11.0127  16.2916  44.3889  255  247  200  
-6.16883  19.5579  53.6439  129  94  40  
-0.593619  13.5547  37.019  231  216  190  
-11.8898  19.8319  53.7345  131  101  53  
0.0698715  9.40052  25.5798  158  129  89  
-7.34573  18.2402  49.2681  255  242  198  
2.81849  8.96291  24.3118  255  254  229  
3.03321  10.9739  29.6421  253  235  186  
-16.2995  24.679  66.164  105  69  20  
1.3924  11.6626  31.359  255  251  230  
-12.611  16.4256  43.52  237  216  168  
2.65621  11.876  31.8061  152  119  65  
4.30175  11.0589  29.6292  135  91  33  
1.81319  11.0228  29.3942  137  112  72  
-12.3657  15.9795  41.9604  66  38  5  
-3.10738  17.7146  46.95  128  95  51  
-1.81397  13.9374  36.9672  126  89  44  
-10.8935  19.488  51.0619  142  112  64  
-10.6978  22.1708  58.2406  111  76  28  
-27.0307  35.0145  91.0782  219  198  149  
2.64251  11.9974  31.3392  133  103  52  
-7.52516  18.658  48.4213  245  229  189  
-4.04029  15.3635  39.6718  139  105  57  
3.14065  10.9191  28.2938  255  255  227  
1.32247  15.3395  39.5797  247  243  203  
-2.11583  16.8669  43.2763  119  85  36  
-5.53788  17.3145  44.1605  162  124  73  
-13.2911  22.7739  57.6493  148  111  58  
-8.66157  20.88  52.5859  252  240  192  
-14.978  22.8121  57.0718  124  88  36  
-11.5854  23.3665  58.5565  146  108  66  
-5.5443  17.6164  44.2226  239  223  186  
-2.11758  13.6329  34.3201  242  229  197  
-3.42012  17.3187  43.4066  228  209  175  
-2.86728  16.488  41.3263  248  228  185  
-2.60997  16.1002  40.3552  105  63  12  
-1.59963  11.5625  28.8235  133  107  61  
2.81417  9.93853  24.9483  255  236  185  
3.63945  10.1799  25.5546  134  95  38  
-9.77181  13.4512  33.1644  237  220  170  
-7.10132  18.907  47.1468  239  218  176  
-1.12674  15.856  39.5794  201  164  111  
1.06572  12.4405  31.0731  248  241  214  
-4.82569  17.0755  42.2063  255  241  198  
-14.7915  22.7029  55.6812  245  231  180  
-1.10108  14.0795  34.7504  230  200  160  
0.255177  15.1057  37.3179  255  241  207  
0.660124  13.2511  32.7101  255  241  191  
-4.70468  19.6173  48.2161  244  234  198  
-3.92723  18.4495  45.3487  255  242  197  
-13.1343  22.4467  54.6985  108  69  24  
-1.83876  15.3401  37.5684  241  225  191  
-1.29233  14.5021  35.5184  204  168  124  
-9.57726  22.51  54.5172  240  213  168  
-6.33987  19.1876  46.51  92  61  24  
-13.8441  22.9727  55.104  237  216  168  
-12.0497  21.9173  52.6171  253  232  190  
-1.46782  -4.83089  12.4451  220  227  236  
3.30801  -8.08866  26.9338  235  235  240  
3.58194  -8.47148  28.0689  231  227  229  
2.1548  -2.97509  10.8419  130  91  33  
2.41991  -6.42889  25.1611  182  152  97  
1.74303  -4.39114  22.0255  214  199  154  
8.89259  -16.0308  82.6902  184  170  132  
3.33649  -7.02386  37.9188  190  179  137  
-0.359237  -3.28199  18.9524  146  145  122  
-0.73273  -2.50292  14.749  165  154  116  
-0.81804  -2.81471  18.5933  140  126  83  
-1.27842  -2.72897  18.2749  154  135  86  
-0.634143  -1.98496  14.9925  145  125  70  
-0.296922  -1.99194  18.2452  115  101  61  
0.940531  -1.35425  12.5419  135  113  63  
-1.139  -1.1545  10.7815  104  89  44  
1.1892  -2.4798  31.0756  124  99  52  
-0.727801  -1.1108  15.6593  103  79  38  
0.508236  -0.249285  3.37367  140  103  46  
2.77472  -2.11605  84.5315  126  96  48  
1.22422  0.0230517  9.52743  120  86  31  
1.63769  0.115904  6.38514  195  229  229  
0.925227  0.18734  5.8789  179  195  181  
0.574235  1.16368  36.7551  174  209  207  
2.01614  0.458478  14.2154  185  227  225  
-0.690907  0.64345  18.4917  176  193  178  
1.45989  0.481111  12.8575  92  80  48  
3.67666  1.33356  35.5998  88  83  51  
1.49395  0.254581  6.29876  122  106  56  
-1.84902  0.625723  15.8781  104  136  132  
-1.14624  0.789155  19.9232  75  55  20  
-0.519628  0.694773  17.5567  195  240  237  
-0.138042  0.574674  14.4828  132  161  159  
-0.290018  0.117362  2.37709  121  133  114  
-1.13481  0.475617  10.8246  166  220  233  
-1.70716  0.921129  20.7194  53  45  19  
1.27453  0.245585  5.1311  146  110  45  
-2.80888  0.819999  17.8973  40  62  54  
-0.591359  4.27924  93.8199  146  180  171  
-0.0443354  0.597313  12.917  96  85  51  
1.14065  1.05672  21.1142  146  111  66  
0.468024  1.59398  30.0291  141  151  133  
-1.14274  1.08654  20.1754  68  55  30  
-0.787038  0.792909  13.9661  103  118  105  
-1.60225  3.52728  63.9051  166  184  164  
1.90668  8.33795  152.181  127  140  123  
-2.00094  3.15803  55.5305  155  168  151  
-2.50275  1.46522  24.3615  103  125  119  
8.44362  3.17918  52.3074  136  97  37  
-1.46075  4.61372  62.3753  102  74  29  
-1.94657  1.68596  21.2853  90  59  21  
-0.227384  1.3571  14.6526  103  69  21  
3.16795  1.54333  16.2373  139  101  37  
3.11017  1.88329  15.6502  211  189  147  
2.61343  5.74966  49.0335  205  188  156  
4.03094  1.97505  16.0958  199  171  132  
5.03138  2.62784  19.5701  229  203  151  
7.13252  3.87474  27.8662  234  219  172  
2.91699  1.44017  9.95415  236  222  189  
4.55155  5.57774  39.2292  246  228  186  
0.195834  8.25359  57.0824  193  162  112  
1.31584  8.57206  59.2854  193  165  123  
3.29133  1.85648  11.3326  155  134  89  
3.81607  2.01731  12.3497  168  137  83  
0.469156  6.24917  39.6126  144  112  71  
2.21888  6.76587  42.0388  105  83  47  
2.80659  1.74797  10.3201  241  230  203  
3.26908  5.18087  31.5763  186  154  101  
-4.3952  6.94647  42.6876  135  99  54  
-4.76711  7.31715  44.3505  152  119  68  
6.19284  5.15897  29.7515  171  143  99  
3.35859  2.26871  12.8127  238  225  180  
8.1909  7.60633  43.8945  198  197  183  
4.93395  3.25509  18.3193  243  237  211  
-3.60245  4.65627  27.152  188  168  136  
-4.7849  7.30829  42.667  202  171  119  
3.2156  2.02191  10.9914  152  133  93  
6.02088  7.1941  40.4  123  84  25  
3.34244  2.36125  12.7454  207  175  119  
2.44661  3.05306  16.2877  138  97  36  
3.79569  6.6472  36.348  158  130  84  
5.04951  7.82741  41.4043  189  172  132  
6.44868  6.9207  36.0357  134  94  31  
7.15825  6.93625  36.0984  189  173  145  
4.20205  3.26054  16.6327  241  223  162  
4.60809  7.87778  40.987  145  120  82  
4.69987  3.46229  17.3129  156  114  49  
2.94732  2.02847  9.86424  220  206  166  
3.03744  0.179907  10.5104  174  197  186  
3.32716  0.240788  12.6584  171  203  195  
3.84411  0.249933  14.0117  168  203  201  
2.87319  0.153647  8.86678  193  203  182  
3.81838  0.22487  12.4852  187  208  202  
3.9112  0.751903  29.7878  100  97  72  
1.80103  0.154331  6.62106  135  145  123  
-0.506131  0.192085  5.19708  59  56  40  
4.69969  1.16574  41.849  94  84  61  
-0.337779  0.196967  5.34649  64  58  42  
3.96747  0.478285  18.4359  147  171  166  
2.73572  0.254377  9.79088  124  105  66  
4.62131  0.38772  15.9227  125  128  105  
-0.39769  0.47475  12.4122  167  218  230  
4.05856  0.394125  13.8851  126  138  121  
3.59174  0.318167  11.3293  152  154  130  
4.97962  0.570789  16.9827  114  126  114  
2.308  0.332872  8.25013  119  111  83  
3.1639  0.424526  10.9074  128  135  114  
2.4524  0.328378  8.22635  146  157  142  
2.65561  0.454235  10.076  199  231  225  
2.70079  0.401729  9.18196  174  191  173  
2.90503  0.417973  9.45791  188  211  196  
2.52041  0.341311  7.73284  188  208  189  
3.43339  0.652144  14.0034  186  208  194  
3.38411  0.573082  12.2369  173  204  201  
3.25985  0.52334  11.22  177  198  182  
2.29501  1.17714  7.20557  245  231  192  
2.54701  1.27882  7.72617  243  235  205  
2.23597  1.23042  7.01307  240  226  190  
-1.75114  3.42987  18.3649  109  86  58  
2.25362  1.34761  7.47082  163  131  79  
0.274832  5.3139  27.5109  132  103  62  
2.02442  1.35571  6.78219  229  212  170  
7.18984  96.3751  460.329  175  153  116  
1.66584  1.86536  5.68418  231  220  189  
1.69954  2.10439  6.38197  238  226  194  
1.55262  1.65134  4.91777  243  234  199  
1.21617  1.54372  4.45143  190  165  120  
1.3514  1.63301  4.70993  192  174  141  
1.19286  1.37016  3.94927  203  174  133  
1.41207  1.5417  4.43611  171  136  90  
2.08313  -3.85015  20.7164  220  199  139  
-0.746802  -4.64047  26.0547  170  161  128  
6.04032  -2.95202  21.0054  193  160  99  
3.64661  -1.9453  22.2286  140  112  61  
5.51084  -1.36094  21.7716  159  122  63  
1.50194  -0.827392  22.2416  117  90  38  
4.8069  -0.567461  22.947  151  117  56  
6.11822  -0.559396  22.2517  163  127  67  
-8.41572  1.46846  37.6665  145  191  190  
7.2795  0.592699  25.3204  126  115  74  
7.15572  0.58566  23.0294  138  126  89  
-0.789237  0.962862  24.7047  64  69  52  
-8.83678  1.79395  39.2722  124  159  151  
5.71573  0.74548  23.0019  120  118  89  
6.71364  0.880464  25.6118  125  127  107  
7.46096  0.952045  25.3991  130  138  113  
7.24912  0.862411  23.1957  132  116  75  
7.24412  1.05412  25.0617  140  131  98  
-9.11771  2.88222  47.4449  119  146  140  
6.82947  1.51911  22.4164  166  130  65  
-3.22257  4.80962  32.6014  173  142  89  
9.06522  4.34769  30.6862  238  221  169  
-3.12668  6.45696  33.0109  153  130  88  
-10.7177  10.0889  46.7162  189  170  135  
-5.58666  12.3749  44.2269  145  123  78  
9.38632  9.20151  32.6774  179  143  80  
1.18195  9.60997  32.8897  101  71  28  
-3.92817  14.6239  44.3428  125  88  36  
8.3485  9.4626  29.9178  146  108  47  
