1139
-0.33859  3.78438  22.8706  184  179  174  
2.77873  3.25173  19.603  174  161  160  
5.05761  3.76965  22.9258  51  64  71  
3.81709  3.82038  23.1169  110  108  108  
-1.74797  4.1051  24.5819  143  143  148  
-1.00845  4.11626  24.6755  194  187  183  
0.364009  4.99383  29.9742  141  150  157  
2.01943  3.97303  23.8941  51  39  36  
0.635678  1.12227  6.79661  137  130  122  
2.90728  4.17122  25.2024  111  135  141  
4.96383  3.74643  22.6637  148  140  141  
-2.30535  3.90852  23.3263  178  174  169  
-1.05206  4.16995  24.9269  80  70  69  
-0.729811  4.1339  24.7329  107  103  99  
0.138532  3.59916  21.5826  140  134  128  
1.11607  4.43334  26.5823  141  132  133  
2.69747  4.47518  26.8562  137  131  124  
-1.53261  3.25973  19.4117  97  91  84  
0.0978621  4.12998  24.6616  101  94  90  
3.8341  3.82325  22.9569  34  33  35  
-2.17963  4.12854  24.5355  154  149  143  
-0.877729  4.06149  24.2043  144  138  135  
0.735461  2.89735  17.2875  187  177  178  
-0.0309218  3.91561  23.3786  193  185  182  
0.253261  4.06454  24.1868  173  168  169  
0.829676  2.79282  16.5838  121  115  114  
0.691441  1.19228  7.12764  128  122  114  
3.05217  4.35057  26.556  67  82  90  
-1.60217  3.71832  21.9992  56  51  57  
-0.953164  3.81293  22.5596  115  106  106  
3.87044  3.83298  22.8878  171  188  194  
5.00807  3.84798  22.9929  194  183  188  
0.203235  4.02578  23.8078  190  183  180  
0.999805  3.75367  22.301  188  176  175  
2.1439  4.10808  24.402  152  145  141  
2.21141  3.95934  23.5114  170  165  159  
3.74638  3.86383  23.0073  136  132  129  
5.03921  3.81598  22.7637  64  82  95  
-0.920572  4.3149  25.4246  147  141  137  
5.01278  3.81775  22.7233  97  97  107  
-1.05975  2.32897  13.6771  139  136  132  
0.310034  3.76427  22.1892  135  152  157  
-0.743349  1.48673  8.69051  80  73  68  
0.29518  4.12018  24.1598  41  36  45  
3.9013  3.85872  22.7621  123  142  146  
0.0280676  4.27157  24.9711  141  136  134  
0.238635  4.1166  24.0853  168  165  163  
1.31281  4.28443  25.1203  173  169  165  
2.49458  3.97641  23.3394  52  47  40  
2.53326  3.96947  23.3269  166  161  157  
3.78818  3.89087  22.8881  120  114  111  
0.283305  4.22419  24.6622  191  187  187  
2.97274  10.9285  63.853  186  175  173  
2.4233  3.90595  22.8938  147  141  133  
2.88506  4.37948  26.2443  67  62  60  
3.87166  3.92203  23.0157  130  127  127  
2.11764  4.24285  24.7847  140  132  129  
4.97879  3.9088  22.9361  118  114  117  
-1.66647  3.71319  21.5216  176  174  168  
2.56774  3.83506  22.3377  81  105  111  
0.0382403  4.32417  25.0222  133  128  124  
4.40334  4.36737  25.4319  30  35  43  
4.87475  3.8991  22.7807  162  152  151  
4.88339  3.88196  22.6626  102  95  98  
4.98222  3.85797  22.6046  59  58  65  
0.449689  5.21891  30.1948  116  129  136  
1.74237  3.59354  20.8162  141  128  127  
3.40361  4.03355  23.4415  148  141  138  
-2.11322  4.3013  24.7578  156  152  147  
1.03032  3.69977  21.3707  138  128  127  
1.98497  4.01488  23.2338  166  158  154  
2.44353  3.91518  22.6784  96  94  84  
-2.86217  4.37005  25.0821  143  138  131  
3.29227  3.98559  23.05  82  71  69  
3.95653  3.99805  23.1441  107  104  104  
-2.86921  4.12855  23.6705  165  160  152  
-2.24634  4.55084  26.0774  83  79  74  
-1.13153  4.47302  25.6636  125  118  115  
0.031019  4.20977  24.1798  183  179  175  
0.371746  4.17437  23.9983  184  202  206  
2.64158  4.03185  23.2538  40  35  35  
4.75557  3.83905  22.1398  104  98  99  
-1.99461  4.24104  24.2472  86  83  76  
0.12502  4.24412  24.3206  107  102  97  
2.61869  4.09625  23.5565  164  161  156  
2.4717  3.82055  21.9501  142  138  136  
3.97397  3.96574  22.8705  124  121  122  
4.91673  3.9107  22.5583  111  107  107  
-2.56482  4.42916  25.2042  146  143  136  
-1.56733  3.38328  19.2496  159  155  151  
-1.39656  3.09617  17.6145  149  145  141  
2.08343  4.2091  24.0769  152  145  140  
1.21035  4.17264  23.8188  176  171  167  
5.02887  3.9384  22.5955  203  220  220  
-1.09616  4.25212  24.1123  55  46  43  
-0.187568  4.26729  24.2298  98  93  87  
1.29089  4.20503  23.948  165  162  160  
1.68819  5.3241  30.4653  165  158  157  
-0.503987  4.111  23.2942  108  101  97  
2.70161  4.11953  23.4153  135  163  168  
3.34779  4.10056  23.3614  49  41  37  
4.25698  4.3236  24.6299  71  67  67  
0.176249  4.19793  23.7665  161  156  149  
4.10694  4.05421  23.0676  113  110  109  
4.25404  4.09379  23.287  96  108  112  
1.12747  3.93855  22.2597  122  116  112  
2.44816  4.00895  22.7123  102  100  89  
4.98822  4.21258  23.9312  79  75  72  
-2.62353  4.48894  25.2081  151  145  139  
-1.04685  4.20337  23.6254  181  177  170  
0.302836  3.71193  20.9222  69  61  66  
1.27602  4.24181  23.9215  175  171  168  
2.44752  4.77122  27.4961  108  102  100  
4.57826  7.76466  43.901  109  106  98  
-0.398076  4.27072  23.9879  175  169  165  
-0.252176  4.30604  24.1836  187  182  177  
1.16755  1.93821  10.9389  77  74  65  
2.70037  4.14202  23.3657  72  99  103  
4.9425  4.01558  22.7259  110  105  104  
5.18068  4.09731  23.1966  92  90  88  
0.400111  4.23202  23.7606  51  60  67  
1.31226  4.20368  23.5949  53  50  51  
2.03355  4.20755  23.6673  176  171  168  
1.92465  3.91357  21.9739  108  102  99  
2.15902  4.13748  23.225  118  111  107  
3.34441  4.07194  22.9197  92  86  79  
-0.979857  4.08496  22.8004  143  138  133  
-0.470375  4.28157  23.9192  161  156  151  
0.227366  4.18286  23.4173  194  188  181  
0.375313  4.36646  24.4309  122  116  118  
4.54534  4.02945  22.6914  147  147  141  
-0.961945  3.62682  20.1889  164  153  150  
-1.11687  4.33679  24.1648  77  64  63  
4.34945  3.98581  22.405  141  148  142  
-2.19265  4.92645  27.4182  125  119  115  
1.34332  4.2424  23.6566  50  64  68  
3.28548  4.11977  23.0539  222  219  212  
4.03936  4.06907  22.7898  108  103  99  
0.625489  8.1269  45.1599  170  166  165  
0.422398  4.26464  23.7153  70  87  89  
2.0329  4.25588  23.7058  168  160  158  
4.20647  4.09569  22.9138  111  108  107  
-0.662713  4.3688  24.2276  81  75  71  
-0.610438  4.22518  23.4417  192  187  180  
1.12946  4.27292  23.7373  76  65  64  
1.18339  4.35277  24.1633  91  84  82  
1.25247  4.2503  23.5735  185  181  179  
2.20312  4.24596  23.5865  104  96  92  
-0.930804  3.7442  20.6218  145  136  130  
-0.0474413  0.904128  4.99784  156  152  149  
0.3834  4.45291  24.6134  133  130  130  
1.32598  4.34672  24.0621  111  108  108  
2.087  4.30042  23.7979  65  59  56  
2.05458  4.1733  23.1021  83  75  73  
2.15052  4.24061  23.508  159  151  148  
2.83991  4.78156  26.5281  88  86  77  
2.63665  4.26296  23.6209  139  136  132  
2.72537  4.22405  23.4187  223  239  236  
4.96495  4.08897  22.7443  101  96  94  
0.413791  4.30421  23.7301  45  42  40  
1.06711  4.02867  22.2341  75  70  70  
1.16785  4.24489  23.4221  174  167  165  
2.02558  4.22881  23.3697  148  143  140  
-1.05994  4.05955  22.2708  80  68  67  
0.63636  7.92748  43.5698  118  114  110  
2.84031  4.29079  23.6552  32  33  32  
3.19244  4.2079  23.233  158  155  149  
-0.488613  4.40065  24.1548  143  138  133  
1.32941  4.24641  23.3411  87  101  104  
2.98497  4.71384  25.9869  32  28  29  
4.4576  4.13551  22.8313  135  133  127  
1.24536  4.10591  22.5099  107  103  102  
1.94421  4.23475  23.2559  234  231  230  
2.66469  4.26049  23.3944  128  123  121  
2.79771  4.2368  23.2755  167  166  163  
4.97521  4.00733  22.1129  81  77  74  
0.488764  7.44154  40.6588  94  88  81  
1.19554  4.29458  23.5169  207  203  201  
2.95929  4.16976  22.8846  131  126  121  
2.9241  3.94941  21.7542  129  126  121  
2.93651  3.92499  21.6056  143  140  135  
0.449737  4.38096  23.9164  65  75  80  
1.20397  4.44569  24.283  126  121  121  
2.5332  4.16078  22.7984  90  87  82  
2.88675  4.28051  23.413  137  135  130  
1.32634  4.28219  23.3625  201  205  207  
2.03715  4.23534  23.0992  176  172  169  
2.1718  4.27316  23.3009  109  104  99  
2.71276  4.25359  23.1965  93  90  86  
3.42558  4.25859  23.2721  112  107  100  
5.01622  4.09118  22.4169  112  108  105  
-0.983977  4.04607  21.9142  135  127  120  
0.358098  5.81117  31.5466  185  181  173  
1.1083  4.23491  23.0387  236  236  236  
1.2656  4.34411  23.6353  177  173  172  
1.37077  4.30751  23.4257  195  203  205  
2.9056  4.18179  22.8075  139  135  131  
4.38413  4.05246  22.1698  91  89  82  
-2.83658  6.27311  34.1307  123  116  112  
0.372566  4.90861  26.6163  179  176  170  
1.42223  4.32613  23.454  71  68  70  
1.7225  4.35105  23.6176  34  32  30  
2.00818  4.30095  23.3685  154  146  145  
2.94963  4.20333  22.8751  154  150  145  
-0.472791  4.50512  24.3336  138  130  126  
0.472085  4.41357  23.8707  57  68  73  
1.33207  4.31663  23.3777  43  37  41  
1.94175  4.61087  24.9226  55  48  43  
1.87192  4.33772  23.5069  128  122  118  
2.6918  4.2008  22.8068  161  158  154  
-1.37075  5.39376  29.11  130  119  115  
1.87742  4.66314  25.1402  146  140  135  
1.93052  4.42925  23.9348  133  129  124  
2.61316  4.31189  23.3314  141  140  133  
2.89827  4.26857  23.1186  138  135  131  
1.15814  4.49018  24.196  57  54  54  
1.45245  4.30481  23.2281  168  163  162  
2.79876  4.18761  22.6522  50  47  43  
2.9069  4.2184  22.8147  126  122  117  
0.501151  4.45261  23.9301  197  205  210  
1.13119  4.55869  24.4995  45  40  41  
2.64898  4.27839  23.068  137  134  130  
-2.39675  5.41216  28.991  174  170  166  
0.378647  4.43068  23.7652  156  152  146  
0.444511  4.5325  24.3146  39  31  35  
0.950705  4.45367  23.9046  66  61  62  
1.03203  4.9195  26.3001  52  49  48  
1.39812  4.37152  23.4993  118  114  110  
1.76235  4.07787  21.9829  162  160  153  
2.92552  4.26079  22.9201  53  50  43  
2.07141  2.49789  13.4793  114  110  105  
0.350683  4.70992  25.1732  122  118  114  
1.09912  4.50476  24.1246  178  170  171  
1.9441  3.27124  17.5623  99  97  89  
2.48436  4.12459  22.1839  138  136  130  
-1.87795  4.4534  23.7269  147  138  137  
1.84111  4.45196  23.7878  118  113  107  
3.53587  5.01144  26.6804  131  129  121  
2.75868  4.34673  23.2387  38  34  29  
3.02464  4.42239  23.6341  128  124  119  
-1.95208  4.71247  25.0252  53  48  49  
-1.08032  4.60035  24.4122  174  169  162  
0.362094  4.38563  23.3249  183  177  171  
1.2272  4.49556  23.9164  163  159  157  
1.42205  4.48599  23.875  158  153  145  
1.6546  4.67495  24.8453  167  163  159  
1.86811  4.3475  23.1865  143  140  134  
2.84584  4.31792  23.0498  142  141  136  
-1.92414  4.59123  24.3101  58  50  50  
0.42568  4.66789  24.7876  192  189  183  
0.588486  4.53861  24.0879  159  153  149  
1.23001  4.3729  23.2239  163  158  154  
1.59462  4.41344  23.4659  177  174  169  
1.76749  4.4623  23.7205  172  167  159  
1.93755  4.44401  23.6338  140  137  131  
1.75852  3.91189  20.8838  97  94  87  
2.72675  4.35619  23.1944  143  140  134  
3.15011  4.47677  23.822  121  118  111  
1.49497  4.46141  23.6594  151  146  141  
1.61261  4.3613  23.1562  152  148  143  
2.63733  4.58668  24.3366  74  69  65  
2.9452  4.36467  23.2  136  133  128  
1.02158  4.80452  25.3314  169  165  159  
1.14949  4.12475  21.8549  86  80  75  
1.36286  4.49972  23.802  163  155  151  
1.50425  4.34018  23  121  117  113  
2.63041  4.34715  23.0546  130  127  121  
-1.19195  4.57171  24.0949  102  95  89  
0.436528  4.52939  23.8943  82  77  68  
-1.20842  4.86272  25.5429  139  132  125  
0.576794  4.23607  22.3517  121  115  111  
0.738212  4.5552  23.9889  170  163  159  
-1.25511  4.69374  24.614  208  204  201  
1.68298  4.11795  21.7754  135  130  121  
1.94188  4.42611  23.3141  143  138  133  
-1.92451  4.61388  24.1393  83  77  77  
-1.00137  4.69568  24.5613  165  162  155  
0.827641  4.3913  23.0754  80  74  68  
1.95488  4.31902  22.7101  140  137  131  
-3.7397  4.89464  25.5106  85  82  77  
-1.24912  4.89275  25.5675  128  123  115  
-0.875179  4.53483  23.688  173  168  164  
1.56789  4.5416  23.7886  160  155  150  
3.27495  4.34919  22.8438  134  128  121  
-1.85074  4.57913  23.8509  202  216  217  
2.75115  4.43736  23.2426  146  144  137  
-1.30705  4.73746  24.6161  39  32  32  
-1.24563  4.79015  24.9057  175  170  164  
-1.07547  4.77884  24.8554  162  158  150  
2.62868  4.37396  22.8118  120  118  110  
-2.05203  4.7622  24.6642  154  150  141  
0.0407915  4.54346  23.5592  184  180  178  
1.93783  4.30869  22.4191  98  96  88  
-1.85892  4.69328  24.2572  43  39  40  
-1.28228  4.65316  24.0557  151  145  141  
-1.89859  4.9052  25.2855  53  48  48  
-1.79313  4.68126  24.1303  148  143  140  
-1.81676  4.88041  25.1652  107  103  103  
-0.28114  4.48344  23.1601  125  119  112  
0.610575  4.68036  24.1903  190  185  180  
0.673954  4.48608  23.2518  156  149  145  
0.821438  4.59019  23.7287  166  160  152  
-1.93246  4.74529  24.419  155  151  148  
0.45481  4.67408  24.0838  173  168  159  
0.38076  4.73697  24.3453  127  121  113  
-0.684229  1.48227  7.58244  139  133  127  
-0.012136  1.22364  6.2679  61  57  54  
-0.564803  4.53229  23.126  117  112  105  
2.46596  3.98208  20.4299  98  95  87  
3.60107  4.79982  24.6546  87  85  75  
0.64871  4.45966  22.8565  151  144  139  
0.949543  1.31759  6.7775  124  119  112  
-0.851421  4.57767  23.2931  170  164  158  
-1.943  4.89619  24.8554  117  114  108  
-0.333071  0.920113  4.66869  137  133  128  
-1.42481  4.76752  24.1991  166  158  150  
2.62194  4.47278  22.8206  33  28  22  
2.71938  4.43814  22.6556  126  124  117  
2.64342  4.48815  22.8532  130  127  121  
-10.8927  23.9781  120.962  139  136  129  
-1.21571  4.68909  23.667  158  154  147  
2.64307  4.39864  22.3142  128  126  120  
4.88799  4.39236  22.3023  91  88  84  
0.6722  4.69201  23.5941  155  150  145  
-4.30692  5.04689  25.2193  73  69  64  
0.859237  2.71781  13.6366  139  136  129  
1.98002  4.45159  22.3989  93  89  84  
-0.818349  4.79489  23.9245  168  161  153  
-0.884929  4.74678  23.6036  172  166  159  
2.88264  4.64934  23.2087  140  137  129  
-0.886362  4.33245  21.5058  128  121  117  
1.79688  4.66172  23.2075  147  145  134  
-1.55905  4.6828  23.1453  87  80  73  
-0.989132  4.60418  22.7507  123  117  111  
2.02438  4.63031  22.9187  122  118  114  
-0.942922  4.67864  23.0207  176  170  165  
-0.282748  3.86128  18.8263  166  159  149  
1.18097  4.30503  21.0637  96  92  87  
-0.0260063  1.58926  7.75035  136  134  124  
-1.37709  4.80622  23.3932  147  144  136  
0.779593  2.18614  10.6808  134  130  126  
2.76535  4.542  22.2231  127  124  118  
2.63006  4.60929  22.3309  134  131  124  
-0.966956  4.90719  23.6229  112  109  102  
-2.68403  5.25446  25.1925  132  126  121  
2.33348  4.73017  22.7975  101  98  91  
0.565077  3.97943  19.1121  114  109  101  
-0.852229  4.76389  22.74  85  82  75  
-1.27011  3.26174  15.5467  99  95  91  
-0.96393  4.75722  22.6851  109  104  97  
0.917717  1.8553  8.88557  127  123  117  
-4.31767  4.9901  23.467  104  101  93  
-0.165662  1.31322  6.20071  109  107  99  
-1.10942  5.23548  24.5849  157  152  146  
-0.464795  5.33934  25.5858  153  148  137  
3.40303  4.79265  22.6195  106  102  99  
-2.6321  4.47166  20.9119  131  127  123  
-3.38714  5.18675  24.137  118  114  109  
0.884334  3.34611  15.573  155  149  142  
1.45819  4.8908  22.8346  142  139  132  
-1.91507  5.21639  24.2153  142  136  132  
3.41266  4.90255  22.9339  98  94  90  
6.69932  30.5352  140.863  157  150  146  
2.26403  4.70488  21.6951  102  99  92  
-0.988653  5.21318  23.738  137  135  125  
3.35629  4.86435  22.2815  131  128  125  
-0.512129  5.13129  23.2767  95  91  86  
0.240858  5.40553  24.5171  109  106  96  
0.765277  1.7045  7.68772  106  103  98  
-3.58253  5.25803  23.5255  103  98  94  
1.82659  4.95305  22.2042  125  122  117  
-0.803895  5.22307  23.2923  112  110  100  
-3.23396  5.341  23.7362  101  97  92  
-3.17181  5.38675  23.8551  104  102  95  
0.592061  2.86761  12.7461  123  118  110  
0.191856  1.61315  7.14736  79  72  67  
3.17785  4.67188  20.6682  99  96  92  
3.47014  4.80242  21.0572  85  81  77  
-0.105623  5.17167  22.5697  151  145  141  
1.86203  5.16514  22.5527  131  128  121  
-0.629386  5.38612  23.3367  148  143  135  
3.36979  5.0207  21.84  121  118  114  
3.2438  5.07956  21.7486  96  93  88  
1.15103  5.51508  23.5329  127  122  115  
0.619647  4.16874  17.7625  120  115  109  
0.775926  5.62503  23.3944  131  128  118  
4.19327  5.19165  21.1681  85  81  79  
1.19646  5.55908  22.3643  125  122  114  
2.60201  5.3204  21.4558  104  100  95  
3.36797  5.27916  21.2897  85  82  77  
2.95834  5.32727  21.4457  95  93  87  
2.35468  5.69066  22.874  108  105  100  
0.720154  5.5191  22.0137  115  112  106  
2.0872  5.3621  21.3611  117  113  108  
0.494093  5.48289  21.7709  151  148  143  
3.69479  5.4174  21.4485  117  113  111  
-1.73804  5.75339  22.6136  115  112  107  
0.533683  5.76795  22.6403  56  53  48  
3.27946  5.35222  21.1117  92  90  85  
0.515978  5.78163  22.625  182  178  173  
0.730652  5.63167  22.0516  150  145  143  
0.752319  5.57426  21.8364  91  87  85  
-1.81383  5.9021  23.0219  122  119  113  
4.36868  5.32913  20.862  78  76  72  
0.201742  5.90483  22.9444  119  116  112  
1.14654  5.74264  22.2865  123  120  113  
-0.0370308  5.851  22.6531  133  129  123  
-2.20301  5.96241  23.0007  111  108  102  
1.5099  5.77105  22.2108  123  118  114  
4.21845  5.35207  20.6744  83  80  79  
1.74828  5.77937  22.2013  105  101  98  
-2.21712  5.9343  22.6492  126  124  115  
-1.00295  4.02287  15.343  118  113  106  
2.53847  5.61821  21.4484  130  126  124  
2.27419  5.7206  21.465  98  94  90  
2.58091  5.82993  21.7149  123  118  116  
4.57847  5.49768  20.4083  85  81  82  
2.75082  5.99068  22.1247  105  99  97  
3.17904  5.65946  20.9088  180  194  196  
3.35877  5.59667  20.6926  113  109  114  
0.876884  5.93214  21.7412  121  119  114  
0.745855  6.02786  22.0441  134  131  127  
3.53515  5.63163  20.6798  102  100  101  
2.01767  5.82681  21.3179  107  104  100  
-0.35841  6.07132  22.0879  138  133  132  
1.50845  5.94881  21.6857  105  102  98  
1.39587  5.79824  21.0843  125  121  118  
2.00004  5.87162  21.3005  144  141  138  
1.72808  5.86915  21.2264  109  106  101  
3.75445  5.7708  20.9184  118  111  113  
-0.723819  6.09136  21.9377  107  103  100  
-0.370902  5.98077  21.5502  123  121  119  
3.74929  5.81713  21.0643  213  206  206  
-1.57856  6.17983  22.1739  106  102  98  
-0.913166  5.97866  21.4112  84  80  79  
3.70058  5.655  20.3526  83  79  79  
-0.756815  6.13734  21.9186  53  53  48  
-0.771607  6.10114  21.7353  201  206  200  
1.62792  5.97799  21.342  100  97  92  
1.34783  5.96487  21.2605  119  117  113  
0.366334  6.15735  21.8891  127  124  119  
-0.819258  6.27261  22.2477  121  137  133  
1.24319  5.95065  21.1525  113  109  108  
1.4198  5.92947  21.1269  100  97  94  
1.87757  5.88736  20.9419  99  96  96  
1.92509  5.84761  20.7668  124  119  119  
2.13399  6.09734  21.6364  55  53  51  
4.66192  5.74649  20.4505  103  104  107  
-0.523096  6.70959  23.6872  128  125  124  
1.68252  6.04512  21.4026  105  103  99  
2.04021  5.96212  21.1176  40  36  35  
4.51987  5.73229  20.3583  89  87  90  
-0.435233  6.14922  21.6932  115  112  113  
2.0163  5.8382  20.6423  98  95  93  
1.29655  5.99564  21.1536  108  104  104  
1.976  5.90396  20.8359  39  36  35  
1.90488  6.01578  21.184  41  38  38  
1.92258  5.89567  20.779  38  36  33  
2.12947  5.95959  21.0009  119  117  115  
4.04921  5.75811  20.3382  102  101  104  
-0.830804  6.23564  21.8735  106  118  118  
2.06809  6.02017  21.1481  202  198  197  
2.70944  5.9202  20.7899  81  78  74  
-0.36265  6.43191  22.462  130  126  124  
4.00688  5.80146  20.3371  156  181  188  
0.597115  6.13728  21.4145  120  116  112  
1.04411  6.13326  21.3726  35  34  31  
3.95303  5.75159  20.0907  51  88  99  
2.08289  6.08799  21.169  28  24  23  
2.81848  5.89744  20.5162  83  81  78  
-0.947401  6.34328  21.9448  137  134  134  
-0.0208009  6.23489  21.5828  108  106  100  
2.07604  6.03271  20.9441  98  95  95  
3.61629  5.97747  20.779  176  159  160  
3.65187  5.93363  20.7392  55  48  50  
3.95249  5.7737  20.0865  101  137  149  
-0.188461  6.29501  21.7638  171  168  166  
-0.169621  6.20354  21.4462  39  36  35  
-0.155032  6.31278  21.7957  115  110  110  
0.110632  6.18854  21.3492  123  120  119  
3.96633  5.83631  20.2293  63  70  76  
0.0911965  6.24746  21.5163  62  61  57  
-3.69  6.27228  21.5154  154  154  144  
2.07156  6.19567  21.375  150  137  137  
-0.16324  6.34571  21.792  189  186  186  
-0.0574587  6.13277  21.0642  109  106  101  
0.0413785  6.25121  21.4719  113  120  119  
-0.0906572  6.22412  21.351  114  110  108  
-0.895064  6.65305  22.7863  156  175  175  
-0.154262  6.12409  20.9788  150  148  149  
0.0415278  6.27726  21.4751  42  53  55  
4.03962  5.96236  20.4906  62  97  112  
-3.66771  6.31875  21.5308  140  137  134  
2.00824  6.09335  20.8608  159  146  148  
1.6636  5.11635  17.4498  28  18  21  
2.48697  6.06382  20.7514  86  84  82  
2.77944  5.63585  19.2253  97  106  113  
3.53227  6.01915  20.5447  92  83  83  
-0.136177  6.30834  21.4483  75  71  71  
2.75406  5.99419  20.4403  82  79  78  
3.95955  5.87961  20.0766  95  129  142  
-0.0745114  6.39236  21.6973  73  71  68  
2.63455  6.02541  20.5127  105  102  100  
0.0368258  6.63788  22.474  48  50  53  
3.95891  5.90155  20.0719  125  160  172  
-0.137578  6.4369  21.7716  116  112  113  
-0.106586  6.32344  21.3491  118  115  114  
2.73577  6.05056  20.4167  90  87  86  
0.0480071  6.53069  21.9432  73  89  99  
-0.0435583  1.96976  6.60703  93  91  90  
2.41957  6.15848  20.6781  94  92  89  
3.84606  5.88761  19.8118  78  76  78  
2.87818  6.02497  20.212  100  98  98  
2.038  6.12379  20.4788  113  108  109  
4.0234  6.0761  20.3831  82  119  130  
-3.02015  6.37745  21.1451  87  84  82  
-0.143834  6.71129  22.3108  112  110  107  
2.61552  6.0908  20.3015  90  87  85  
-0.223652  6.80228  22.5859  102  97  94  
-1.98747  6.36631  21.0342  84  82  77  
-0.272877  6.97079  23.1092  66  57  58  
2.02734  5.98737  19.8568  94  91  90  
2.89799  6.09116  20.2107  105  131  148  
3.35122  5.97741  19.8144  112  106  107  
3.92104  5.99198  19.8768  21  52  65  
-2.20983  6.34866  20.9064  128  126  122  
-2.01702  6.56359  21.608  195  193  188  
3.92039  6.01365  19.8721  72  103  116  
-2.9982  6.47382  21.1633  29  24  24  
3.89268  6.0828  20.0159  81  79  80  
4.46947  6.0121  19.7984  80  76  82  
-3.39106  6.41361  20.9361  86  81  82  
-1.20961  7.79021  25.4649  108  107  107  
2.02542  5.91207  19.2743  75  73  69  
3.30201  6.01868  19.7246  88  82  85  
3.87577  6.01994  19.6863  71  84  95  
-1.96933  6.56284  21.2772  138  133  131  
2.68825  6.1479  20.0028  82  79  79  
3.61258  6.16493  20.0701  85  84  87  
-4.15187  6.43006  20.7488  84  94  107  
0.0539515  6.49917  21.0331  109  127  135  
2.78877  6.24675  20.2763  81  79  80  
3.57892  6.21211  20.1791  170  184  183  
3.89381  6.06188  19.6984  42  76  90  
3.3084  6.16129  19.9298  96  91  94  
3.89316  6.08333  19.6938  108  142  155  
-4.8161  6.18921  19.8693  81  79  81  
-0.102374  2.03192  6.54389  26  22  26  
3.82197  6.16964  19.9223  68  66  69  
1.93412  6.38973  20.5594  88  86  85  
2.08374  5.94346  19.0969  75  72  71  
3.44709  6.13471  19.7452  71  85  102  
4.25617  5.93379  19.1611  118  107  112  
0.90652  6.41621  20.5501  116  112  114  
4.00909  6.31348  20.2376  92  123  134  
0.878107  6.49047  20.7034  188  181  185  
1.12222  6.52745  20.8725  63  59  59  
3.80625  6.17566  19.7633  92  89  94  
0.305746  6.3105  20.1  80  76  80  
0.12582  6.54486  20.8114  127  131  134  
0.285321  6.44855  20.5092  97  92  99  
2.72209  6.34666  20.2068  92  93  93  
3.83851  6.25492  19.9234  101  104  107  
-0.0893551  6.39975  20.2889  105  102  101  
3.21193  6.18815  19.668  92  88  89  
4.28349  6.05729  19.2896  34  31  34  
3.88024  6.18703  19.6602  12  27  44  
0.0841308  6.49413  20.4964  109  106  107  
0.379782  6.60985  20.868  99  110  119  
1.91191  6.4431  20.3211  91  88  86  
0.324455  6.79736  21.3849  91  89  92  
-0.121533  6.55945  20.6034  109  106  108  
1.03514  6.49768  20.4254  107  106  104  
1.20988  6.56594  20.6482  87  85  86  
-1.11445  6.64603  20.8249  89  88  88  
0.908129  6.52459  20.479  109  105  104  
-1.04474  6.67144  20.879  155  180  186  
-0.178703  6.67086  20.8647  184  195  188  
-0.12596  6.6433  20.7588  172  173  175  
1.22726  6.59454  20.602  100  101  102  
0.126855  8.05428  25.067  102  98  99  
-0.215844  6.59996  20.5419  58  63  62  
0.937658  6.99679  21.8126  56  49  53  
1.91553  6.44921  20.1151  82  80  77  
3.14742  6.27702  19.5895  103  95  96  
3.32325  6.37978  19.9121  98  97  100  
0.057748  6.64261  20.629  109  104  107  
0.377318  6.54332  20.3296  46  71  78  
-0.368948  6.68532  20.7084  99  96  96  
-0.506115  6.56254  20.2799  108  101  104  
0.319553  6.58089  20.3807  55  54  55  
0.246522  6.62363  20.4821  111  108  108  
-1.91659  6.69416  20.6316  188  190  186  
0.0770282  6.63773  20.4956  101  98  97  
0.116822  6.65671  20.5293  102  97  98  
0.377637  6.59131  20.3309  39  60  68  
0.965665  6.51993  20.1241  113  109  111  
3.36835  6.36939  19.7334  36  58  77  
3.26943  6.31738  19.5322  78  80  85  
3.37334  6.41541  19.8019  59  71  84  
3.29341  6.29528  19.412  84  97  104  
2.6249  6.42037  19.739  83  98  103  
-2.31293  6.9689  21.3009  115  119  121  
1.02801  6.66167  20.416  99  96  97  
3.12107  6.42026  19.7187  68  61  66  
-2.28778  6.80801  20.7786  89  88  91  
2.63036  6.49561  19.9149  130  143  144  
0.19496  6.80953  20.7447  146  145  147  
2.24541  6.39722  19.5377  90  89  87  
3.86268  6.37776  19.5036  79  83  98  
-1.23774  7.6048  23.1547  51  65  70  
0.209934  6.6827  20.3386  41  38  40  
-0.361824  6.76746  20.559  121  120  121  
0.313381  6.71958  20.4261  106  103  106  
0.241746  6.70743  20.3654  29  25  26  
1.95318  6.55684  19.9393  93  90  91  
0.378335  6.70259  20.3318  125  148  156  
-1.17331  7.09339  21.4769  77  88  91  
2.57731  6.53811  19.8568  133  170  177  
3.77968  6.33204  19.2586  152  141  147  
3.83469  6.35694  19.3106  67  96  104  
-1.2764  2.32156  6.98298  35  34  38  
0.330779  6.72077  20.2912  85  81  87  
3.79196  6.3964  19.3909  100  86  91  
3.83395  6.37771  19.3056  108  139  147  
1.79864  6.15062  18.6035  56  54  61  
0.297824  6.7864  20.4115  203  202  205  
1.78123  6.61977  19.937  109  105  112  
2.06631  6.53825  19.7094  102  105  108  
2.20196  6.83371  20.5887  141  137  137  
2.45882  6.55354  19.7312  71  70  70  
3.83319  6.39846  19.3005  67  100  109  
1.8105  6.58811  19.8018  32  34  39  
1.83423  6.60141  19.8517  117  118  124  
3.75951  6.38145  19.228  82  78  84  
1.7228  6.62447  19.8818  75  71  76  
3.80089  6.36233  19.1423  128  162  175  
-4.25078  5.93836  17.7539  98  100  102  
-2.6944  6.79783  20.3049  84  82  84  
0.327954  6.86912  20.5471  101  98  104  
0.373515  6.71129  20.072  101  130  138  
2.09424  6.52437  19.5494  188  182  178  
-3.7746  6.60467  19.6739  83  79  85  
0.886265  6.70671  20.0503  133  129  131  
-1.06196  2.37153  7.05551  40  41  43  
4.22475  6.36976  19.09  88  80  80  
-2.75945  7.01166  20.849  82  81  81  
0.310873  6.71705  20.0195  118  117  122  
0.890718  6.15487  18.3446  56  52  52  
1.01281  5.93946  17.6856  70  94  96  
-1.20589  6.9218  20.5527  43  49  55  
0.373745  6.75027  20.0715  100  130  138  
-0.662796  6.88991  20.4421  52  45  48  
-2.65357  6.8255  20.2036  77  74  73  
-0.381328  6.79068  20.1326  34  45  43  
0.917759  6.91881  20.5448  35  29  32  
-1.2637  6.83736  20.2079  106  102  106  
-0.396525  6.81014  20.1205  111  122  129  
0.234034  6.87322  20.3055  163  152  155  
-0.404097  6.82376  20.1144  48  54  62  
1.26739  7.36215  21.8061  95  122  120  
2.43829  6.61471  19.5344  78  76  78  
0.891697  6.70784  19.7447  39  33  38  
-0.417736  6.88717  20.2267  93  98  102  
-4.53062  6.51119  19.0626  69  68  71  
-1.28815  6.8128  19.9817  62  59  62  
-0.569721  6.90364  20.2245  121  122  126  
-0.546765  6.90967  20.2421  78  80  81  
0.195502  6.92993  20.3193  158  147  150  
4.17817  6.42147  18.9114  164  148  152  
4.16451  6.38146  18.7886  31  22  29  
2.44457  6.54146  19.2114  88  87  90  
-0.714141  6.88166  20.1142  84  83  87  
0.179778  6.94106  20.3056  121  108  114  
0.318143  6.90019  20.1612  90  88  90  
2.61241  6.82584  20.0143  72  85  97  
1.99925  6.41397  18.7495  68  61  62  
3.57607  6.50203  19.0484  139  122  122  
4.17239  6.41103  18.7899  83  76  84  
-4.61478  6.63251  19.2861  162  175  175  
3.35504  6.21152  18.0844  81  65  66  
4.14399  6.42197  18.7586  93  85  92  
1.01992  6.85309  19.9279  89  86  89  
0.896752  6.75646  19.6016  110  105  107  
-0.488424  2.56292  7.41201  153  183  186  
0.904735  6.78133  19.6072  170  165  168  
-4.52137  6.52573  18.7821  72  72  85  
2.06997  6.74612  19.4779  117  105  106  
1.02351  6.8388  19.7059  95  92  95  
2.44709  6.66515  19.1919  73  73  74  
-0.489702  2.5773  7.38833  61  83  93  
0.912816  6.82864  19.6113  121  115  118  
0.960157  6.84255  19.651  107  104  107  
0.920787  6.85339  19.6165  164  160  162  
0.944474  6.86781  19.6357  98  92  96  
3.00235  6.60967  18.9424  38  35  52  
3.75032  6.59484  18.9119  130  171  183  
2.54478  6.6913  19.123  101  137  149  
0.0786825  7.10226  20.2125  58  52  54  
0.917525  6.80755  19.3971  75  70  72  
3.74953  6.61499  18.9067  101  141  152  
3.45612  6.64562  18.9221  94  86  88  
-4.46118  6.55579  18.5349  78  75  85  
0.956691  6.85605  19.4271  116  111  116  
-3.05212  6.80609  19.1841  98  110  115  
2.56095  6.75303  19.1293  110  122  126  
2.95116  6.67456  18.8672  41  61  65  
0.992969  7.29413  20.4883  175  173  174  
0.33501  6.9687  19.5405  75  92  99  
1.5232  6.87783  19.3171  71  92  99  
0.945415  6.87488  19.2736  68  62  67  
2.92038  6.71295  18.8515  20  40  53  
-1.17656  7.04403  19.6824  156  161  159  
1.04213  6.83883  19.1492  172  187  189  
-0.36542  1.95232  5.44497  48  57  68  
1.41233  6.90605  19.3193  109  105  108  
3.35483  6.66388  18.6827  79  73  74  
1.27817  6.87278  19.2064  103  98  102  
0.26556  5.77791  16.0971  23  49  57  
2.92376  6.78479  18.9846  61  77  93  
1.21563  6.86851  19.1533  82  78  80  
1.5235  6.9164  19.2694  59  93  102  
1.51553  6.93558  19.2602  109  138  148  
0.291575  6.36293  17.6218  45  61  70  
2.63453  6.79521  18.8675  69  67  69  
1.00864  7.23283  20.0276  117  113  116  
-2.50726  6.94553  19.1602  113  111  113  
1.5155  6.95715  19.2577  46  78  87  
3.67693  6.73235  18.68  7  36  54  
1.05014  6.92823  19.1488  80  77  79  
-3.04795  6.96098  19.157  107  118  121  
0.227147  5.8696  16.1807  81  80  86  
-0.484828  2.76084  7.59889  71  83  87  
-3.03838  6.9871  19.1669  94  109  109  
-0.66857  7.10245  19.5046  37  35  44  
3.46192  6.74782  18.6193  64  64  67  
3.64614  6.71433  18.5266  16  53  70  
-1.1939  1.82639  4.9993  76  82  97  
-0.348203  1.94437  5.33013  40  50  54  
-0.801412  6.68357  18.319  105  103  104  
-0.827382  7.11629  19.5165  141  139  144  
3.52737  6.73973  18.5524  176  178  181  
4.20224  6.71274  18.4803  91  77  80  
0.303372  6.6556  18.2185  38  68  76  
3.41127  6.81451  18.6881  48  55  59  
-3.92064  6.75722  18.3734  51  53  57  
1.01986  7.13043  19.4525  152  150  152  
2.61133  6.54004  17.876  94  103  110  
3.34905  6.76438  18.5082  74  86  91  
-1.21013  7.13142  19.3766  159  173  173  
-0.459653  2.79363  7.58217  171  178  179  
-1.1813  7.14584  19.3952  189  195  197  
1.0157  7.07605  19.2412  111  106  111  
3.18591  6.79698  18.5046  74  75  82  
-1.17945  7.03665  19.0612  90  91  96  
4.18577  6.73671  18.3463  79  69  77  
-0.745228  6.98058  18.869  80  81  81  
1.45955  7.01532  19.0073  69  77  81  
1.04759  7.02532  18.8888  93  89  97  
2.56363  6.9119  18.6358  75  73  78  
3.49252  6.76775  18.2429  152  142  147  
-0.917951  7.1126  19.0622  70  68  68  
1.44381  7.06696  18.9871  60  67  72  
-2.46464  7.06315  18.8942  119  116  118  
2.51765  6.87026  18.4349  97  98  107  
3.49184  6.78719  18.2381  114  108  114  
-4.25226  6.67233  17.804  107  118  134  
-2.46438  7.07719  18.8923  63  59  63  
-0.19875  7.18784  19.2168  98  90  96  
0.997878  6.64405  17.753  76  74  77  
1.39697  7.10189  18.9425  88  88  92  
2.53268  6.96255  18.5882  25  32  38  
-0.23783  7.18732  19.0803  117  109  114  
2.47489  6.91244  18.4038  144  173  181  
-0.252334  7.19769  19.0683  54  46  55  
0.113782  7.13654  18.8939  184  181  185  
-0.0682433  7.17737  18.9742  93  92  96  
-0.815082  7.09562  18.7286  129  147  147  
-0.126475  7.17567  18.9308  87  86  89  
0.925264  5.81785  15.3588  14  9  17  
-0.845846  7.20421  18.9375  144  160  162  
4.13539  6.87678  18.1497  73  71  81  
1.44281  7.35156  19.331  26  44  51  
-0.909405  7.25545  18.9716  24  25  32  
-0.884658  6.84616  17.8727  54  53  62  
-0.316545  7.26299  18.9779  94  92  97  
0.142276  7.80625  20.4342  78  74  76  
3.44515  6.84227  17.94  142  139  147  
0.12341  7.31945  19.1028  78  73  75  
0.268935  7.27844  18.9945  80  96  103  
0.141596  7.17007  18.6921  82  79  80  
2.48273  7.05386  18.3722  17  42  50  
-0.954134  7.21051  18.701  68  73  83  
3.29621  6.83845  17.8053  83  74  75  
-1.9066  7.28802  18.8698  148  149  151  
-4.21177  6.87678  17.7759  159  170  172  
1.38395  7.47905  19.2714  92  106  115  
3.209  7.15276  18.4059  91  87  89  
1.20635  7.20013  18.5234  71  67  78  
1.22137  7.21826  18.5328  125  122  133  
1.2854  7.12995  18.2908  72  72  88  
1.22375  7.18434  18.4139  58  56  69  
0.264189  7.85163  20.0666  48  61  67  
1.19626  6.94982  17.7778  120  118  132  
0.2407  7.54786  19.2536  70  78  82  
0.701378  7.19834  18.3645  107  104  112  
1.21778  6.98517  17.8392  32  24  44  
1.27555  7.23438  18.3883  61  61  78  
2.77827  7.06684  17.9421  137  126  124  
-4.50111  6.67689  16.8509  142  152  157  
3.27587  6.96904  17.6344  31  40  49  
2.51164  7.21348  18.2133  96  127  135  
2.48912  7.12996  17.9351  156  169  176  
2.55865  7.11626  17.8704  84  76  85  
0.100928  7.32268  18.3204  190  185  186  
0.735041  7.79522  19.526  84  77  83  
0.766122  7.27384  18.2115  85  90  99  
4.01721  7.00338  17.5713  98  87  97  
0.665134  7.27136  18.1349  135  127  128  
0.0685875  7.30871  18.2006  103  96  101  
0.686722  7.29093  18.1483  85  79  85  
3.13101  7.45248  18.5275  40  46  60  
3.74588  7.16403  17.8815  85  98  108  
-0.0505389  7.36482  18.2975  105  98  102  
0.65798  7.28931  18.1268  104  88  90  
2.97277  7.00696  17.4797  38  47  59  
3.65276  7.03441  17.4818  37  47  63  
0.167967  7.26109  17.9719  87  93  101  
0.853596  7.654  18.9217  43  48  57  
0.708362  7.35038  18.1552  85  78  85  
-2.28347  7.30382  17.9445  103  112  115  
-1.11939  7.30906  17.9531  76  91  101  
-0.392712  7.38919  18.1522  103  98  102  
-1.12939  4.65679  11.4117  106  102  106  
2.76598  7.16939  17.6402  73  84  92  
-0.444177  7.38666  18.103  97  90  96  
3.66036  7.10606  17.4661  18  48  68  
-1.79709  7.35593  17.9719  104  102  107  
0.757023  7.30937  17.8284  82  83  84  
2.61113  7.21676  17.6185  90  103  108  
2.57266  7.21068  17.5873  5  12  19  
0.12684  7.39459  17.9217  65  74  79  
-4.02659  6.95546  16.7736  52  48  54  
0.0162265  7.38357  17.8445  96  98  107  
0.0369129  7.38926  17.8583  53  58  65  
2.45161  7.34297  17.7714  39  47  54  
-0.0421609  7.49945  18.0708  115  119  124  
0.947631  7.40176  17.8534  43  57  72  
1.59016  7.35467  17.7526  78  67  80  
-2.54359  7.31806  17.5887  147  150  154  
-0.155707  7.42946  17.8818  76  77  81  
-0.0324077  7.27044  17.5407  57  65  71  
0.945054  7.34638  17.6854  87  103  113  
-0.972543  6.88057  16.5192  92  96  96  
-1.00585  7.41036  17.7923  116  122  122  
0.959213  7.36343  17.6932  41  63  71  
1.37768  7.37329  17.6945  184  189  189  
3.20922  5.90387  14.1357  98  87  96  
0.586664  7.53173  18.0305  25  17  23  
-0.368862  7.48291  17.8707  18  25  28  
0.980436  7.40181  17.7024  36  69  78  
-0.402544  7.40238  17.6612  77  84  90  
3.14236  7.24552  17.3288  69  81  96  
-3.76253  7.09909  16.8681  105  123  130  
1.65896  7.05975  16.8305  15  13  23  
-4.00934  7.06093  16.7146  101  100  103  
3.02496  7.24976  17.2282  102  92  99  
3.70974  7.41708  17.6475  53  92  111  
-0.817189  7.42892  17.5778  61  62  67  
3.00688  7.24965  17.2198  80  68  70  
-0.911457  7.5378  17.7675  10  15  19  
-1.09609  7.55053  17.7603  60  60  64  
3.9265  7.24676  17.1079  63  54  66  
-1.13928  7.66118  17.9616  83  88  92  
-1.20751  7.48974  17.4884  126  145  150  
2.31142  7.39561  17.3111  68  79  94  
-1.2073  7.5023  17.4858  152  179  182  
2.97468  7.30866  17.0514  6  21  38  
3.80538  7.75351  18.0766  30  61  80  
2.10062  7.42529  17.2145  68  67  71  
2.96496  7.41141  17.1383  119  150  160  
-3.91356  7.11611  16.3462  125  127  129  
0.649568  7.54669  17.3946  39  49  61  
2.10445  7.4197  17.1133  169  166  168  
-2.85266  7.30885  16.7764  95  107  110  
0.636364  7.59917  17.48  53  63  71  
0.432871  7.54257  17.2907  28  19  24  
1.26085  7.54514  17.2871  84  75  84  
0.556632  7.52762  17.2092  12  19  28  
0.543078  7.5299  17.1991  68  73  81  
1.25146  7.62482  17.4241  125  112  124  
3.47439  7.22284  16.5221  50  84  103  
-0.10317  7.60696  17.337  95  102  106  
2.02314  7.46184  17.0065  149  131  137  
1.31281  7.57061  17.226  94  104  116  
1.2357  7.76513  17.6624  144  131  139  
2.39017  7.54801  17.1739  112  118  129  
0.463069  7.5223  17.0565  10  16  26  
3.19608  7.39002  16.7721  138  148  154  
0.394983  7.72622  17.4825  67  60  76  
0.44525  7.67019  17.3548  44  46  56  
1.97951  7.49027  16.9663  170  154  157  
1.0415  7.17714  16.1981  88  71  80  
1.96505  7.49775  16.9534  110  92  102  
1.12439  7.51929  16.9935  59  42  49  
-2.07044  7.4395  16.7434  150  163  166  
0.353235  7.60966  17.1126  37  27  42  
-0.519729  7.60712  17.0858  102  96  98  
3.49592  7.31911  16.5144  137  149  158  
-2.80498  7.40828  16.5738  86  99  102  
-0.604654  7.5482  16.8928  84  72  76  
0.33183  7.66677  17.1843  75  75  81  
1.34742  6.79071  15.2254  75  89  94  
-1.08407  7.59781  16.895  127  148  152  
1.50839  7.53474  16.7952  35  47  57  
-2.36522  7.48622  16.5911  71  68  75  
1.04716  7.86498  17.5159  78  62  74  
-3.81294  7.23194  15.9812  119  120  123  
-2.35859  7.50498  16.5896  105  104  112  
-2.09518  7.56628  16.7123  58  73  78  
0.242489  7.67973  16.9462  78  74  77  
-0.959927  7.61823  16.7802  129  125  135  
0.229335  7.68797  16.9352  126  116  123  
-1.0161  7.61571  16.7458  136  145  151  
-2.33797  7.57831  16.5801  4  4  14  
0.194393  7.64472  16.7531  97  83  92  
0.181422  7.65294  16.7425  65  52  61  
-2.33129  7.5969  16.5782  138  153  155  
-2.33212  7.52454  16.4062  137  141  148  
-0.412641  7.68455  16.7738  136  156  160  
0.163365  7.84868  17.1169  138  123  138  
1.76303  7.65787  16.7223  128  133  142  
-1.61585  7.60065  16.5353  71  66  73  
0.377609  7.44743  16.2302  109  127  135  
0.777967  7.66063  16.684  72  64  73  
0.72478  7.62019  16.5716  108  96  105  
0.0936677  7.27569  15.7759  111  94  104  
0.149153  7.69704  16.7106  66  57  67  
0.417906  7.9633  17.2426  44  55  62  
-2.70639  7.35841  15.8926  83  85  92  
-2.75934  7.5737  16.3443  91  102  108  
0.0688754  7.50767  16.1834  67  55  61  
0.0490376  7.70599  16.5449  118  103  115  
-0.113117  7.71193  16.5  78  87  90  
-2.30999  7.59891  16.2094  127  131  135  
0.513907  7.7806  16.629  124  129  137  
-2.19521  7.55592  16.1047  93  101  104  
-0.023811  7.83543  16.6948  139  149  151  
2.08831  7.82473  16.6902  59  58  61  
-2.67214  7.54293  16.0345  133  144  154  
-3.14472  7.53348  15.9464  118  118  120  
-3.12121  7.47626  15.799  126  128  129  
-1.65509  7.70819  16.2982  122  109  116  
-2.0554  7.65784  15.964  92  98  106  
-1.93588  7.74507  16.1476  44  42  51  
-3.63424  7.40277  15.3141  106  111  107  
3.94366  -2.33152  31.6933  137  207  220  
2.87173  -1.51472  21.7625  108  107  100  
9.90436  -10.2044  50.3097  76  74  74  
-1.22821  4.60801  23.81  146  142  136  
3.91376  -0.439216  27.6533  70  65  55  
-0.958656  4.53871  23.3863  151  148  141  
-0.967129  4.79219  24.6631  102  98  93  
0.310623  -0.0547303  3.2773  134  127  119  
0.410063  -0.0796687  3.73145  131  127  120  
4.60155  -2.15642  29.9252  60  63  63  
3.83959  -6.66794  38.8481  129  129  120  
3.94937  -6.48381  37.7303  63  62  59  
2.47519  -0.829301  27.8742  99  91  78  
5.27109  -0.936014  29.9865  95  87  79  
2.8345  -4.90064  29.6121  60  57  51  
1.99078  -0.980069  31.1717  154  146  136  
-0.4234  4.65948  22.9486  133  125  116  
6.06375  -6.04121  37.8896  125  122  117  
4.8013  -2.09045  26.9799  95  129  153  
-0.475998  4.89282  23.8736  149  140  135  
4.4945  -0.963865  24.6974  137  131  126  
2.39062  -4.84422  32.7734  135  130  118  
2.77732  -1.07297  27.2331  181  177  166  
0.972724  -1.33274  34.0789  175  169  162  
4.82075  -1.22379  30.3995  102  100  92  
5.349  -1.23701  29.7789  117  113  108  
-1.68475  -1.02677  24.9721  121  111  105  
-1.94168  4.57195  21.8421  152  147  140  
1.92291  -1.29886  30.8101  177  214  216  
0.000886831  -0.403238  5.32174  163  157  148  
2.48175  -1.32719  30.8776  187  181  171  
4.01432  -1.28019  29.2886  146  144  142  
1.49057  -1.46754  32.9007  208  202  194  
6.93786  -2.24319  30.809  110  106  108  
-5.00525  -7.71006  58.7327  99  98  88  
-4.08772  -4.48975  34.2735  102  99  86  
5.48164  -1.36523  29.0679  186  240  255  
4.40436  -1.65305  34.4088  82  81  81  
5.50909  -1.37846  28.6208  138  209  229  
4.94554  -1.28328  26.2196  131  205  229  
5.28484  -1.44517  29.8771  125  119  120  
1.5553  -1.19416  24.2202  112  112  107  
3.77461  -1.27054  25.5923  85  93  96  
-0.279286  -0.399664  3.3031  169  164  156  
6.65234  -1.5643  30.0002  109  107  105  
2.30531  -1.53692  29.8756  144  160  161  
1.08612  -1.46453  28.3712  171  165  159  
0.231594  -1.58058  12.9691  129  124  115  
2.71106  -1.43391  27.9446  137  158  169  
1.49084  -3.97369  33.4249  148  142  129  
5.92143  -1.48166  27.8274  148  223  242  
-0.323046  -2.12561  39.2256  148  166  168  
6.12893  -1.55112  28.4331  126  202  228  
5.86593  -1.67135  29.8135  151  214  241  
5.59923  -3.52435  31.7166  34  31  21  
2.98812  -2.46685  43.1446  141  136  134  
4.04095  4.78321  21.8036  85  81  79  
2.44983  -1.48936  26.0387  151  149  138  
5.87171  -1.77123  29.379  126  205  228  
-1.15041  -3.46843  34.5594  166  162  155  
5.63675  -2.87737  28.8405  79  76  69  
5.99688  -1.80061  29.3914  100  106  115  
5.81234  -1.8283  29.3107  166  236  255  
6.18187  -1.77496  28.5643  118  191  216  
3.44748  -1.89417  30.264  153  216  226  
4.01719  -1.54553  24.8803  82  123  145  
3.56131  -1.9643  30.9368  138  178  190  
-0.373668  -1.52327  23.8449  148  172  180  
6.61863  -2.93076  31.7684  103  100  97  
1.37933  -2.13744  32.7724  115  112  106  
-0.36859  -1.37824  21.2718  172  170  171  
6.41868  -2.86322  31.7604  171  228  252  
0.829579  -2.53598  28.5366  112  108  97  
1.41123  -2.20919  30.011  175  171  170  
6.15331  -2.05081  30.3192  122  168  192  
5.14134  -1.99343  29.4022  158  216  242  
-2.59352  -2.52221  29.0725  172  166  159  
-0.381475  -2.84842  32.8228  180  206  217  
6.44491  -2.02019  29.4863  49  50  53  
4.57525  -1.83289  27.1913  67  75  81  
1.04732  1.28118  23.7131  220  212  203  
-2.56263  1.45153  26.1689  205  197  192  
5.46309  1.41272  25.5702  109  103  102  
-3.64899  5.60988  24.1696  94  90  87  
-2.91564  1.75632  28.3152  163  155  149  
-2.78329  1.82304  26.0724  158  152  146  
5.25873  1.81449  24.8261  54  50  48  
2.78978  1.95009  26.041  180  171  164  
2.84902  2.03369  26.2078  121  112  105  
5.3622  2.02614  24.9172  102  102  100  
4.90045  2.02688  25.0543  99  94  89  
0.358582  2.22217  26.4115  147  139  133  
1.5517  2.17383  25.1924  189  182  172  
2.45469  1.8075  20.5198  184  178  176  
1.8315  2.28313  24.9903  112  103  94  
5.28231  2.19499  24.2918  66  93  102  
1.17237  2.37778  24.7051  157  152  144  
0.408332  2.41686  24.5814  208  199  199  
3.62997  2.45713  24.2152  145  140  129  
-5.22612  2.7795  25.822  102  97  90  
3.82817  2.5717  24.291  68  60  55  
3.87067  2.58548  24.2936  129  123  122  
5.02736  2.64021  24.0654  115  109  108  
2.10373  2.38558  21.6402  158  152  141  
5.14335  2.68093  24.2596  110  105  111  
5.1261  2.67539  24.0952  37  44  51  
-2.02159  2.98357  25.7337  187  180  173  
0.620288  2.95319  25.1791  169  160  157  
2.55296  2.80695  24.0201  76  71  63  
-0.234102  2.49735  21.0627  177  166  163  
-0.227204  2.85864  22.7144  212  205  195  
2.88798  5.35813  21.8056  91  87  84  
-0.843868  3.42157  25.5091  110  100  98  
1.31818  3.30406  24.1434  156  159  163  
1.19838  3.39436  24.796  141  132  125  
1.11703  3.28578  23.8165  129  122  114  
-0.784349  5.73577  22.9145  117  112  108  
2.16977  3.64587  25.3314  121  115  111  
4.92158  3.31562  23.0335  104  99  97  
2.74875  3.50589  24.0644  140  167  170  
2.68134  2.69389  18.239  124  120  115  
3.03768  2.91721  19.638  70  67  63  
4.39226  3.42368  22.9685  107  102  98  
-0.204392  -2.18248  32.0216  190  186  188  
5.31901  -2.09486  30.589  126  133  143  
-1.19323  1.2785  25.8895  235  226  222  
4.60082  -2.22956  30.4746  66  80  84  
4.93249  3.69782  23.9386  88  83  81  
3.13462  1.25319  26.3959  120  110  103  
-2.17532  1.4274  29.5018  227  218  208  
4.32414  3.42533  22.1657  88  82  80  
4.10415  -2.46881  29.3837  57  54  48  
-1.49238  1.17738  25.15  186  179  172  
0.0296008  0.125926  2.86831  174  165  159  
1.31456  2.60834  15.9701  61  48  48  
-0.0920683  2.88014  17.9809  145  137  133  
4.85574  -2.08221  29.9076  177  240  255  
3.25403  -2.02621  29.151  79  79  79  
1.52905  5.89745  21.2328  106  102  98  
1.87326  5.93867  21.3854  89  86  84  
-0.613751  4.25783  25.9088  172  167  163  
1.93743  5.96674  21.4554  94  89  88  
3.02057  -1.91884  27.2565  83  84  87  
0.460305  1.19082  29.8438  181  172  170  
1.26064  4.1972  25.3431  91  85  78  
1.73947  6.04836  21.247  49  48  44  
2.06151  6.05296  20.9166  97  91  90  
0.0611184  6.18368  21.3041  32  38  32  
-0.0840611  6.39924  22.0137  80  77  74  
-3.47292  6.11721  20.5166  107  108  103  
2.44339  3.97941  23.5313  143  136  129  
2.11729  6.12457  20.5604  89  84  84  
-2.03247  6.51713  21.5939  99  97  95  
-4.20074  6.30018  20.7727  83  95  100  
-1.11964  7.8846  26.1226  51  64  64  
-0.282264  6.68724  22.0372  64  58  56  
2.92728  6.18013  20.4056  96  124  134  
2.34769  6.25413  20.5975  81  78  77  
-1.55823  0.953999  28.1657  163  155  152  
1.9949  6.28998  20.6246  100  97  97  
3.54054  6.21456  20.1371  7  21  30  
3.69809  6.23237  20.1962  94  92  92  
1.01162  6.481  20.8272  82  79  80  
3.53038  6.24089  20.1215  15  31  45  
3.94138  6.17572  19.9089  87  122  132  
-1.11789  4.74161  27.4093  136  132  129  
0.926025  6.35405  20.3839  48  44  46  
-0.42602  6.79129  21.5878  36  28  31  
4.47012  4.41423  25.5303  39  44  53  
-1.8963  6.55914  20.7116  60  56  56  
3.13814  6.15781  19.4483  157  144  145  
-2.61363  4.41877  25.2528  146  141  135  
-0.26292  6.58739  20.5029  108  106  104  
-1.14094  4.74049  27.0805  105  101  98  
0.292364  3.96125  22.6793  156  149  145  
0.122773  6.59495  20.2644  34  30  31  
-1.16861  6.72318  20.5835  93  93  95  
0.402867  4.73715  26.9782  86  82  85  
9.27928  -22.4008  70.9951  6  14  22  
-0.0384448  4.51138  25.5901  87  82  76  
1.42692  -6.29376  20.2658  66  73  85  
6.92621  -2.69517  32.8107  76  78  90  
2.49647  3.87239  21.9791  76  73  73  
