1106
2.6656  -1.50373  9.11959  166  160  143  
-2.23905  -1.05595  6.51571  78  72  60  
-1.25834  -1.15247  7.07746  154  149  138  
3.71198  -2.2752  13.9065  167  160  139  
-2.21165  -1.04104  6.39585  93  85  75  
-1.83734  -1.0663  6.58625  120  113  100  
1.5054  -1.3521  8.36817  121  114  96  
1.6583  -1.36039  8.41109  150  142  123  
1.05891  -1.34066  8.32374  112  106  87  
1.37092  -1.00844  6.27557  148  141  124  
-1.78164  -1.06298  6.68693  123  115  102  
-1.09205  -1.14525  7.22544  114  109  96  
-1.05993  -1.14759  7.23822  103  98  85  
-0.448391  -1.20526  7.60003  115  108  92  
1.47741  -1.05427  6.62432  139  131  113  
2.11115  -1.44984  9.12235  137  131  111  
-0.783422  -1.15762  7.39049  101  95  83  
2.03278  -1.35449  8.60018  145  139  121  
2.99345  -1.41716  9.03629  144  137  119  
-2.25275  -1.00785  6.40395  88  85  74  
0.124065  -1.20627  7.75868  115  109  90  
2.16144  -1.33388  8.58639  132  125  107  
2.59527  -1.35512  8.74285  156  151  132  
-1.14319  -1.09598  7.12353  125  120  106  
2.21877  -1.32321  8.59939  149  143  123  
2.19791  -1.24323  8.06924  133  127  108  
1.3816  -1.17893  7.73313  124  116  98  
-1.86406  -0.983028  6.50173  96  90  79  
-1.37636  -1.03515  6.9496  138  133  122  
0.908789  -1.20306  8.04805  98  91  74  
1.72633  -1.03684  7.01248  136  132  113  
-1.29509  -1.00895  6.98264  144  138  126  
-1.80948  -0.948445  6.60048  113  107  94  
1.69176  -1.19186  8.31021  119  112  97  
-0.778089  -1.10407  7.72709  114  108  90  
1.86462  -1.19944  8.44481  120  114  97  
1.49662  -1.1817  8.48218  89  85  74  
-2.32253  -0.889376  6.39495  73  71  60  
-1.60243  -0.944738  6.81095  132  125  113  
-2.33964  -0.8784  6.3871  45  40  32  
0.6882  -1.09218  7.97224  99  93  79  
0.66249  -1.0662  7.96214  115  108  90  
-1.87291  -0.864016  6.49969  121  115  101  
0.852163  -1.07447  8.1056  115  110  95  
-2.30818  -0.822582  6.32967  67  66  53  
-2.08614  -0.887937  6.77104  97  91  79  
-2.5043  -0.81299  6.23735  82  83  71  
-2.17129  -0.822641  6.3941  69  64  52  
-0.805555  -0.908347  7.29259  139  134  119  
-2.27447  -0.786589  6.34699  102  100  91  
0.221766  -0.959288  7.81772  97  90  75  
-1.05375  -0.85185  7.11858  119  114  100  
1.30838  -0.992698  8.27222  89  84  70  
-2.47742  -0.738031  6.12714  111  112  101  
0.930183  -0.952072  8.11496  101  96  82  
2.88236  -1.04537  8.9496  106  101  87  
-2.35811  -0.729634  6.1633  121  117  105  
-2.39277  -0.730835  6.29268  117  115  98  
-0.589168  -0.86156  7.44979  102  97  83  
-0.398768  -0.880606  7.6004  93  89  74  
0.611077  -0.91605  7.93265  100  95  82  
2.36336  -1.00352  8.67948  94  90  77  
-2.54266  -0.723812  6.16901  103  109  98  
-0.33998  -0.871712  7.61972  106  99  86  
-2.59083  -0.711264  6.14588  174  173  167  
0.275502  -0.887423  7.86731  92  88  73  
-0.161869  -0.856403  7.6775  111  108  93  
2.24763  -0.922064  8.54742  90  86  74  
1.18102  -0.873465  8.1745  86  82  71  
-1.15042  -0.736167  7.1128  116  111  100  
-0.860626  -0.758206  7.30079  109  103  88  
0.102379  -0.807409  7.80694  85  80  68  
1.60634  -0.861939  8.33341  93  89  80  
-2.00468  -0.651812  6.37249  101  95  81  
-0.496902  -0.76254  7.47608  107  103  88  
0.0288793  -0.783771  7.69683  86  79  68  
-2.06587  -0.638851  6.3459  102  96  85  
-1.1794  -0.705097  7.02201  140  134  122  
-2.62022  -0.610342  6.16435  210  211  204  
-0.587863  -0.724214  7.44289  130  125  108  
0.527085  -0.775305  7.93139  79  73  61  
0.816871  -0.750814  7.77049  46  42  31  
1.08578  -0.802558  8.22957  27  23  17  
1.52294  -0.807331  8.30491  89  84  73  
-1.58399  -0.647489  6.74081  141  136  124  
-0.823516  -0.702801  7.35948  103  97  84  
-0.781441  -0.696843  7.29244  74  69  55  
-0.526279  -0.746955  7.86068  89  84  70  
0.0780809  -0.746211  7.79428  89  83  67  
0.362655  -0.755519  7.93009  89  84  72  
0.578751  -0.763483  7.99465  61  56  44  
0.617232  -0.76488  8.00592  67  63  54  
0.668699  -0.766738  8.02088  59  52  39  
-0.41391  -0.724261  7.67124  81  78  68  
1.2916  -0.77393  8.2409  92  86  75  
-2.26344  -0.593673  6.44957  65  64  54  
-0.977437  -0.666235  7.221  130  126  112  
-0.0437814  -0.717557  7.75381  54  49  39  
0.00486007  -0.719397  7.76925  76  72  62  
0.0536943  -0.721234  7.78463  61  56  45  
0.31976  -0.74722  8.04466  32  29  21  
0.484218  -0.727553  7.87719  79  75  69  
0.733161  -0.744148  8.03676  24  21  17  
0.981602  -0.758865  8.24526  37  32  27  
1.06525  -0.745735  8.08939  93  87  76  
1.34542  -0.762891  8.25352  86  81  70  
-1.10739  -0.650842  7.12602  125  120  108  
-0.846962  -0.660571  7.26764  33  29  25  
-0.757238  -0.651069  7.09356  68  66  58  
-0.659192  -0.668188  7.33347  103  100  91  
-0.467111  -0.690788  7.56552  38  35  27  
-0.373761  -0.694438  7.59673  68  64  52  
-0.271076  -0.706183  7.71704  42  40  33  
-0.236309  -0.698311  7.69064  33  30  25  
0.274743  -0.715597  7.89996  89  88  78  
0.50947  -0.714315  7.92956  94  89  81  
0.707245  -0.730814  8.02801  90  87  77  
0.83303  -0.743019  8.15332  45  42  33  
0.904758  -0.735595  8.13191  83  79  70  
-2.65384  -0.540505  6.11595  71  69  70  
-2.6134  -0.557227  6.14552  201  206  195  
-0.824944  -0.650305  7.27496  32  29  27  
-0.397074  -0.681843  7.58819  81  78  69  
-0.350205  -0.683638  7.6037  93  89  80  
-0.10916  -0.697043  7.86559  71  67  59  
-0.0678901  -0.692747  7.74424  30  27  20  
0.078284  -0.698098  7.79028  101  97  90  
0.425865  -0.708718  7.94453  45  41  33  
0.75892  -0.720125  8.04136  53  50  40  
1.04658  -0.729629  8.12096  33  28  20  
-0.749156  -0.680714  7.67883  86  84  76  
-0.701229  -0.659734  7.43432  42  39  31  
-0.609895  -0.6547  7.43141  35  33  26  
-0.415733  -0.653416  7.46133  33  30  25  
-0.213589  -0.666279  7.65704  28  25  22  
0.176721  -0.689568  7.81958  30  27  22  
0.253548  -0.69984  7.93095  45  42  36  
0.312404  -0.692508  7.90925  87  84  74  
0.334117  -0.68587  7.82905  50  46  38  
-0.541574  -0.645866  7.45395  45  43  34  
-0.350014  -0.66022  7.60211  51  46  40  
-0.0414193  -0.67883  7.7878  43  41  32  
0.0539082  -0.67319  7.78064  48  46  38  
0.0913577  -0.681916  7.87999  89  87  79  
0.797672  -0.696482  8.04949  94  89  76  
-2.54842  -0.526308  6.1059  141  146  141  
-0.255619  -0.651929  7.63197  104  100  91  
-0.0790252  -0.672912  7.86373  104  99  89  
-1.27434  -0.590833  7.0135  133  128  115  
-0.835444  -0.605235  7.26917  119  115  101  
-0.384983  -0.635545  7.58895  83  78  66  
-0.164054  -0.641623  7.70979  93  91  80  
0.0052188  -0.647506  7.76343  73  69  60  
1.09879  -0.680864  8.12869  35  30  25  
2.02706  -0.703149  8.46215  86  82  71  
-1.22262  -0.582133  7.03236  123  118  105  
-0.913716  -0.599315  7.2744  66  62  53  
0.185862  -0.632645  7.77984  92  87  78  
0.681104  -0.65546  8.01248  84  80  72  
2.81871  -0.708882  8.87704  98  93  80  
-2.06809  -0.492443  6.20673  99  93  81  
0.598278  -0.619055  7.94601  86  84  81  
0.857017  -0.64714  8.28926  61  59  58  
1.07827  -0.658501  8.2471  92  88  78  
-0.954334  -0.562546  7.30669  35  32  25  
-0.209026  -0.586214  7.60652  59  53  51  
-0.124342  -0.59746  7.66892  90  87  80  
-0.00671117  -0.599226  7.75568  52  49  45  
0.304495  -0.617751  7.88571  79  77  71  
3.21594  -0.694537  9.10553  29  25  22  
-2.52488  -0.471832  6.1191  152  152  143  
-0.642936  -0.562186  7.4148  59  54  49  
-0.563599  -0.564881  7.44153  52  48  43  
-0.477677  -0.574033  7.55432  51  47  42  
-0.407863  -0.576365  7.57731  52  49  45  
0.141331  -0.598372  7.88774  183  182  175  
0.354402  -0.604963  7.95149  141  141  141  
0.43504  -0.614051  8.06526  142  143  140  
0.950736  -0.620222  8.171  24  21  19  
3.04054  -0.669236  8.96596  34  30  22  
-1.01053  -0.534128  7.15626  109  105  93  
-0.718415  -0.554344  7.47225  64  61  54  
-0.187671  -0.540174  7.2881  178  178  172  
0.0422853  -0.583129  7.85628  183  184  179  
0.104124  -0.585048  7.87528  79  79  76  
0.893888  -0.590679  8.02509  149  151  149  
1.07526  -0.60197  8.1625  37  33  24  
1.32924  -0.608925  8.22918  104  100  88  
2.09015  -0.632285  8.55753  103  98  83  
-1.00609  -0.524868  7.33256  95  90  82  
-0.757566  -0.551507  7.44034  115  112  107  
-0.414484  -0.546816  7.48915  199  200  195  
0.971839  -0.58041  8.04481  106  101  85  
1.53229  -0.617002  8.41073  103  99  85  
2.28853  -0.614289  8.55675  72  69  58  
3.05084  -0.658576  9.11446  109  105  94  
-0.772403  -0.520117  7.23796  141  138  134  
1.42322  -0.585853  8.24965  110  104  87  
1.77234  -0.591675  8.38516  98  93  79  
1.88355  -0.594444  8.41195  84  80  71  
2.09365  -0.599589  8.46129  77  74  60  
2.60523  -0.614617  8.71933  34  29  25  
2.73951  -0.624066  8.845  83  79  71  
-1.7377  -0.456548  6.52969  156  149  136  
-0.964682  -0.506144  7.30056  96  91  77  
-0.842013  -0.515877  7.42747  173  170  163  
1.24802  -0.568565  8.20316  110  103  90  
2.20187  -0.58564  8.53256  30  26  22  
2.38764  -0.589997  8.57483  27  23  19  
3.05217  -0.613597  8.95809  95  93  83  
1.15435  -0.553461  8.17711  96  91  82  
1.39166  -0.568308  8.27743  88  80  66  
1.645  -0.571619  8.39231  32  28  21  
1.83943  -0.576344  8.43908  36  32  26  
2.17363  -0.58105  8.56829  117  112  104  
3.00591  -0.598624  8.94574  50  46  37  
1.43594  -0.547799  8.24752  32  28  23  
2.39876  -0.590938  8.90924  47  42  37  
2.51559  -0.571922  8.69258  55  52  44  
2.76694  -0.583352  8.84347  40  35  30  
-1.03114  -0.46761  7.14591  44  41  35  
1.08497  -0.537565  8.33827  90  86  75  
1.56429  -0.534732  8.32654  55  51  43  
1.46538  -0.473063  7.22707  46  43  34  
1.75512  -0.548171  8.41499  52  48  40  
1.79857  -0.540249  8.38377  94  91  83  
1.97955  -0.544424  8.42653  99  95  88  
2.11563  -0.553107  8.55065  46  43  37  
2.18683  -0.554717  8.56693  96  92  83  
2.40059  -0.565233  8.71008  104  100  92  
1.27396  -0.518373  8.20308  27  24  19  
1.87534  -0.609616  9.77342  94  90  81  
2.69121  -0.554214  8.82224  93  88  78  
-1.17662  -0.436392  7.01383  180  175  161  
-1.05218  -0.445045  7.13744  37  34  26  
1.38118  -0.508183  8.22847  67  63  55  
1.6249  -0.498585  8.02579  106  102  87  
1.93551  -0.526096  8.45326  81  76  67  
2.74739  -0.536225  8.73539  86  82  75  
-2.56291  -0.378863  6.05507  130  134  130  
-1.86048  -0.390369  6.36272  129  123  110  
0.923043  -0.493161  8.14791  59  55  47  
1.17162  -0.477225  8.04509  59  56  48  
1.21986  -0.486715  8.09724  100  97  89  
2.44035  -0.516308  8.6667  133  127  116  
-1.00932  -0.424398  7.15147  131  128  112  
-0.926005  -0.429248  7.12988  217  214  208  
-1.10202  -0.403635  7.08641  49  45  35  
-1.07201  -0.407163  7.04974  124  120  112  
1.15691  -0.461234  8.21389  123  120  107  
2.11722  -0.481916  8.44753  117  113  103  
2.70113  -0.494568  8.71824  32  28  23  
3.11143  -0.508296  9.04867  219  217  210  
-0.974529  -0.405059  7.29247  145  141  134  
2.65792  -0.484998  8.80275  38  30  30  
2.0182  -0.453733  8.42088  83  80  73  
2.61296  -0.470456  8.79065  203  200  195  
2.98298  -0.473013  8.9176  91  87  78  
-2.38198  -0.327553  6.09538  75  74  67  
-1.60858  -0.346886  6.50696  128  124  111  
-0.998324  -0.384994  7.23403  179  175  165  
1.35801  -0.427348  8.26065  35  32  26  
-1.10433  -0.367041  7.11547  119  116  107  
1.96978  -0.430955  8.49791  183  181  176  
-2.64543  -0.309779  6.06772  182  185  172  
-1.17567  -0.35043  7.01066  151  148  138  
-0.263254  -0.370396  7.48993  78  73  71  
1.32681  -0.409365  8.29133  197  198  192  
0.843185  -0.378256  8.11249  194  193  190  
1.08679  -0.371488  8.04851  208  207  199  
1.37858  -0.380863  8.20992  80  75  67  
-2.06121  -0.28716  6.16497  98  92  81  
-1.01931  -0.328989  7.22385  252  250  244  
-0.297782  -0.335075  7.47647  212  210  201  
-0.238722  -0.343467  7.52797  226  225  217  
2.86948  -0.384336  8.78199  39  34  27  
-0.783816  -0.323383  7.4366  143  140  135  
-0.0900399  -0.334838  7.70726  115  110  103  
0.400406  -0.340962  7.89983  125  123  118  
0.588809  -0.348638  7.90081  179  175  170  
0.641069  -0.345713  7.96634  135  130  122  
2.62148  -0.371526  8.6794  110  104  100  
-2.66841  -0.268462  6.0803  166  168  155  
-0.815738  -0.30424  7.38939  142  136  130  
-0.725202  -0.303412  7.20985  148  143  141  
-0.640434  -0.311751  7.39964  144  140  131  
-0.458472  -0.315666  7.45796  156  152  144  
-0.21515  -0.327285  7.84368  91  86  75  
0.470977  -0.326818  7.83167  143  137  125  
0.829771  -0.340415  8.10422  95  91  80  
0.850163  -0.334012  7.93322  101  97  91  
1.30374  -0.342306  8.04653  134  132  127  
1.64784  -0.347525  8.26853  123  118  106  
-0.583781  -0.301576  7.41719  139  133  120  
-0.375002  -0.312474  7.65325  79  73  63  
0.490031  -0.315972  7.70094  92  87  79  
0.640933  -0.321125  7.9634  77  72  63  
0.968996  -0.319657  8.01189  40  37  33  
2.57872  -0.352113  8.70929  164  161  158  
-1.7199  -0.252094  6.39257  125  120  109  
-0.95313  -0.292386  7.41128  104  98  89  
2.85232  -0.334691  8.71881  117  113  104  
-1.19584  -0.267484  6.95028  42  37  30  
-1.16858  -0.270402  7.16896  92  88  81  
-1.06083  -0.269773  7.12582  82  76  68  
-1.00728  -0.268039  7.06506  125  121  112  
-0.876829  -0.267118  7.15757  105  98  89  
-0.499151  -0.231473  5.93253  83  78  67  
-0.509552  -0.276331  7.48826  67  63  51  
-0.412225  -0.282179  7.46973  106  102  91  
0.634878  -0.299445  8.04757  34  30  26  
0.743162  -0.298356  7.98771  63  57  50  
0.884978  -0.300832  8.02472  62  59  49  
0.958536  -0.290161  8.05305  109  106  99  
2.64753  -0.318105  8.67488  38  33  30  
-0.226566  -0.274214  7.52552  38  34  30  
0.366717  -0.290892  7.86708  87  83  73  
0.551716  -0.282728  7.93493  48  44  40  
0.826651  -0.280172  7.97024  47  43  40  
2.60328  -0.304007  8.6633  125  119  116  
-2.67049  -0.21154  6.03631  123  123  113  
-1.21319  -0.239686  6.91552  28  24  21  
-0.853512  -0.248182  7.244  65  61  55  
-0.594664  -0.255782  7.41042  44  43  35  
0.589741  -0.271134  7.9438  100  95  87  
0.640653  -0.271992  7.95747  71  67  59  
0.69173  -0.27285  7.97108  116  110  103  
0.781507  -0.274348  7.99471  111  108  100  
0.865114  -0.268507  7.97876  111  107  97  
2.55914  -0.289946  8.65171  84  75  71  
-2.63621  -0.206043  6.00487  165  166  153  
-1.05133  -0.240898  7.0765  40  35  31  
-0.994265  -0.231944  7.11608  47  43  38  
-0.932146  -0.239467  7.16767  48  45  36  
-0.469315  -0.246691  7.4492  26  24  20  
-0.362709  -0.25384  7.65218  45  41  37  
-0.288927  -0.245765  7.55471  34  31  28  
-0.253764  -0.246389  7.56546  113  111  104  
-0.217353  -0.253812  7.61046  36  33  28  
0.417144  -0.263128  7.93203  110  104  94  
0.545784  -0.255639  7.84388  88  83  71  
-0.764234  -0.236472  7.38615  26  24  24  
-0.677018  -0.229146  7.30048  79  76  73  
-0.51491  -0.234432  7.43402  68  66  58  
-0.169894  -0.242923  7.62356  132  127  113  
0.483223  -0.242545  7.82556  106  102  90  
1.00123  -0.253117  8.04772  98  93  85  
1.34913  -0.253636  8.18451  42  37  35  
2.38636  -0.258417  8.51761  170  167  163  
2.53075  -0.270509  8.68434  228  224  217  
2.73152  -0.26551  8.68181  119  115  105  
-1.27701  -0.212702  6.91934  139  136  124  
-1.1719  -0.20866  6.92849  122  120  109  
-1.11419  -0.218026  7.0539  116  113  104  
-1.06203  -0.21974  7.28572  97  94  85  
-0.899555  -0.218057  7.17719  37  35  25  
-0.732297  -0.216967  7.28184  43  40  35  
-0.710173  -0.217355  7.28901  52  48  44  
-0.654663  -0.218325  7.30689  107  103  96  
-0.583001  -0.22183  7.41164  37  33  30  
-0.43472  -0.224385  7.45812  104  100  94  
0.97505  -0.240302  8.03947  44  40  32  
-2.68591  -0.179627  6.05328  159  159  152  
-2.60351  -0.184472  6.04129  69  72  67  
-0.953265  -0.206103  7.15865  129  128  115  
-0.778673  -0.202915  7.18604  98  95  84  
-0.537474  -0.211207  7.42517  112  110  99  
-0.354503  -0.207758  7.44888  77  73  64  
-0.319267  -0.21483  7.49248  107  103  93  
2.58435  -0.234651  8.55364  55  51  44  
-2.66312  -0.165774  6.04157  157  158  146  
-2.39164  -0.167672  6.0258  47  44  35  
-0.627281  -0.19195  7.36239  110  107  95  
-0.485821  -0.196179  7.48991  119  111  101  
-0.37699  -0.202387  7.47396  119  114  100  
-0.276878  -0.199495  7.55448  126  121  108  
-0.242792  -0.193487  7.52928  57  52  41  
0.425094  -0.212283  7.84087  58  54  48  
2.20411  -0.214687  8.38133  128  122  116  
2.46961  -0.219957  8.52783  126  122  112  
2.83431  -0.22845  8.79022  48  42  39  
-2.65455  -0.16186  6.06847  142  143  132  
-0.834193  -0.186086  7.19654  91  86  73  
0.325646  -0.198754  7.81239  81  76  65  
2.10194  -0.209465  8.49017  182  179  175  
0.396046  -0.181074  7.79503  94  90  83  
0.961418  -0.190528  8.02935  110  107  96  
2.16127  -0.188259  8.36776  58  53  48  
-2.7025  -0.137424  6.0242  96  95  92  
-0.221282  -0.181024  7.49259  106  101  91  
0.312719  -0.169513  7.85692  162  156  148  
0.424997  -0.176053  7.8366  37  32  27  
1.01897  -0.17213  8.00515  95  90  82  
2.04817  -0.188137  8.42119  154  149  147  
2.41107  -0.188499  8.64484  39  34  32  
0.979969  -0.159304  7.99377  40  36  31  
2.38163  -0.157928  8.36743  77  74  66  
2.48596  -0.146207  8.38646  115  113  104  
2.02066  -0.154843  8.37183  89  81  80  
2.63829  -0.157114  8.64283  47  44  38  
2.79745  -0.15886  8.67405  129  126  116  
-0.248064  -0.141333  7.53701  48  43  34  
0.30086  -0.138325  7.79882  96  88  78  
2.23994  -0.145425  8.50785  141  139  126  
2.52237  -0.142516  8.61706  142  139  131  
-0.564267  -0.118541  7.32791  140  135  121  
0.38755  -0.127356  7.82088  60  54  44  
0.97356  -0.128806  8.02389  100  98  90  
-2.58042  -0.0960934  5.96432  53  57  55  
-1.75074  -0.0995314  6.33153  118  112  100  
0.607743  -0.111484  7.84296  92  86  74  
0.637538  -0.109229  7.60201  106  98  85  
2.12997  -0.11721  8.38827  70  63  59  
2.44989  -0.114422  8.50457  156  152  142  
-2.60387  -0.0866565  5.95398  88  88  80  
-0.261279  -0.0944205  7.46728  36  31  24  
-0.134957  -0.0966436  7.58724  135  130  119  
0.784218  -0.1013  7.88658  53  49  40  
0.979164  -0.0977381  7.98533  54  53  46  
-0.30545  -0.100346  7.5444  132  126  112  
0.879396  -0.0838833  7.87335  56  52  46  
-1.7777  -0.0695257  6.25293  118  112  99  
-0.156467  -0.072562  7.49586  149  141  131  
0.56996  -0.0749025  7.8287  38  37  26  
2.78079  -0.0786779  8.75043  47  39  35  
0.627248  -0.0573138  7.80619  101  97  94  
0.821908  -0.0652432  7.8912  37  33  28  
-1.87422  -0.0493676  6.21607  104  100  89  
-0.689661  -0.0495116  7.20386  126  118  104  
2.10341  -0.0522264  8.28161  59  55  47  
-0.284007  -0.0368831  7.45547  61  56  47  
-0.226103  -0.0374001  7.47243  131  125  113  
-1.4018  -0.030829  6.64373  145  141  129  
-0.540639  -0.0232417  7.29668  165  160  146  
0.374925  -0.0310531  7.80612  41  37  32  
1.06861  -0.0247372  7.99698  129  125  123  
2.08447  -0.0263635  8.36288  121  118  110  
0.589542  -0.00901687  7.79062  101  96  89  
-1.29133  -0.0113281  6.82841  140  138  125  
0.569562  -0.00268687  7.81969  52  47  41  
0.891102  0.000780843  7.86504  105  101  93  
0.935729  -0.00541472  7.91077  96  91  80  
1.01652  0.000248838  7.981  138  133  128  
2.67009  0.00192625  8.52522  71  64  57  
0.757858  0.00801053  7.86565  82  80  71  
0.859184  0.00729458  7.89055  83  79  71  
2.09661  0.0121905  8.35852  69  62  54  
2.62806  0.0160574  8.60751  143  139  129  
-0.157919  0.0199957  7.56944  150  147  140  
0.330636  0.034135  7.66899  54  49  40  
2.28927  0.0427164  8.35323  167  162  153  
2.48375  0.0424804  8.48189  136  132  120  
-0.294969  0.0432655  7.44505  41  36  30  
0.656858  0.0448676  7.83573  254  251  247  
2.15356  0.0494139  8.27357  135  131  121  
2.63848  0.0546189  8.50897  46  41  38  
-0.754121  0.0502262  7.17653  131  125  113  
2.06944  0.0567506  8.29078  59  54  46  
2.16718  0.0678766  8.236  137  134  124  
-0.929249  0.0561459  7.07078  143  137  124  
-0.336374  0.0601057  7.38064  129  126  114  
2.55205  0.081271  8.48751  67  62  55  
0.200546  0.0764686  7.66221  169  164  159  
0.592404  0.0746106  7.76292  82  76  72  
2.481  0.0931514  8.38099  39  33  29  
-1.64029  0.0644896  6.36709  132  129  115  
-0.818872  0.083472  7.15396  126  119  107  
1.98783  0.101073  8.23111  111  107  100  
1.98083  0.105107  8.10559  154  150  143  
2.1382  0.105992  8.22342  52  48  45  
2.32777  0.101048  8.3879  57  53  50  
-0.329721  0.105528  7.39667  65  61  54  
2.06881  0.113372  8.24519  56  52  50  
2.36985  0.112021  8.30378  66  62  58  
1.92133  0.137454  8.13483  126  121  120  
2.49369  0.128038  8.50622  147  144  137  
0.63264  0.136164  7.86852  243  240  237  
2.2724  0.137926  8.28039  141  140  133  
2.56301  0.148589  8.56923  154  151  143  
-0.632896  0.126975  7.20765  124  119  105  
0.53814  0.139502  7.70956  62  55  48  
1.60124  0.157901  8.08868  188  184  178  
1.89057  0.164562  8.20023  124  114  121  
-1.88921  0.120101  6.14095  116  109  96  
0.177404  0.151696  7.59365  142  138  135  
2.02987  0.174409  8.1389  82  78  79  
2.09704  0.174216  8.15207  79  77  76  
2.2282  0.170803  8.30028  134  132  127  
-1.46196  0.140218  6.54417  134  130  116  
0.933176  0.176602  7.88438  181  177  176  
0.97133  0.176529  7.89324  199  195  191  
1.01735  0.179198  7.78662  164  159  153  
2.26776  0.196609  8.32068  198  195  186  
2.323  0.19119  8.36983  127  121  118  
2.41889  0.19888  8.4396  156  152  145  
2.46091  0.198771  8.44755  198  193  187  
2.57444  0.1931  8.50815  45  40  43  
-0.403718  0.173243  7.35074  124  120  109  
0.318271  0.186998  7.64793  106  102  95  
0.618243  0.189114  7.80734  253  247  243  
-0.381292  0.189198  7.32606  115  111  101  
-0.347318  0.189206  7.33578  29  23  20  
0.533746  0.210731  7.71343  41  37  32  
2.51549  0.224584  8.45271  254  250  250  
0.492779  0.217406  7.71967  125  122  112  
0.54994  0.222222  7.70191  62  59  54  
0.878862  0.226975  7.74773  161  158  150  
-1.86275  0.176473  6.14951  136  132  118  
2.61266  0.258264  8.50179  153  151  150  
-0.376186  0.237948  7.27241  53  48  42  
-0.341477  0.240051  7.33335  105  100  95  
0.491199  0.270558  7.5672  46  42  35  
0.53182  0.266141  7.60935  114  111  105  
0.896724  0.269855  7.77774  125  120  114  
0.74361  0.274847  7.57778  101  98  90  
0.959225  0.281847  7.79022  47  42  37  
1.05328  0.286564  7.77918  178  176  171  
1.56648  0.290548  7.97295  217  215  214  
-0.364688  0.27139  7.27241  115  111  106  
0.282268  0.284379  7.57541  44  41  34  
0.721575  0.294296  7.61991  123  120  109  
0.855169  0.28548  7.71209  74  71  64  
-1.55217  0.244084  6.37067  146  142  129  
-1.48358  0.247294  6.46222  142  138  124  
-0.387367  0.286697  7.23641  35  30  22  
1.43762  0.315521  7.8257  150  145  143  
0.573876  0.316616  7.69539  134  130  125  
0.756032  0.308872  7.68611  77  73  68  
0.793059  0.31837  7.52227  128  123  117  
1.5957  0.331191  8.05834  224  222  220  
2.50753  0.349589  8.33588  62  56  60  
2.7319  0.354031  8.46531  250  250  250  
2.95751  0.354063  8.50353  254  250  251  
-1.22884  0.278926  6.6627  140  135  122  
-0.591519  0.300103  7.12722  121  116  102  
0.587503  0.328821  7.58335  66  62  57  
0.920886  0.329435  7.77457  114  110  103  
2.46537  0.362303  8.32577  254  251  252  
-1.93354  0.253774  6.07462  118  113  98  
0.229208  0.330862  7.44573  58  54  46  
0.788811  0.336502  7.7735  83  80  72  
0.943643  0.328978  7.64318  75  72  67  
2.82488  0.375363  8.38563  187  182  182  
-0.252335  0.331761  7.26952  172  169  163  
0.450206  0.347366  7.46814  130  126  118  
1.56739  0.367948  7.81073  217  215  213  
-2.488  0.263532  5.79417  152  157  157  
-0.386593  0.338018  7.25985  29  28  20  
-0.36457  0.342201  7.23759  58  53  48  
0.507047  0.359146  7.59129  34  31  26  
0.647865  0.3639  7.59318  120  116  106  
0.579644  0.371106  7.60707  114  111  104  
0.957702  0.377139  7.77576  58  53  49  
0.100512  0.375635  7.40771  101  97  91  
0.208489  0.372254  7.46479  84  78  71  
0.252696  0.376549  7.44622  107  104  97  
2.93884  0.441465  8.53474  129  124  122  
-0.375479  0.375331  7.23141  66  64  58  
2.6717  0.449809  8.52776  135  132  129  
0.21249  0.398312  7.32538  53  51  45  
1.33029  0.413099  7.62707  31  26  27  
0.252659  0.410698  7.44211  67  63  59  
0.928508  0.423582  7.64938  129  126  119  
0.983936  0.419876  7.69219  48  44  42  
2.18034  0.443014  8.03175  155  151  149  
2.33594  0.463556  8.28243  129  126  122  
2.37701  0.463691  8.28981  127  123  119  
2.47296  0.469558  8.39618  121  116  114  
2.59446  0.453535  8.15445  82  77  74  
2.80101  0.459392  8.27473  64  61  56  
0.194837  0.413  7.37687  123  119  111  
2.53193  0.561743  9.64329  137  135  131  
2.68826  0.466232  8.16756  58  54  52  
-0.414862  0.410677  7.16674  49  45  37  
-0.385962  0.415712  7.25238  138  135  129  
-0.00406443  0.436387  7.4538  178  173  169  
0.465624  0.435011  7.49093  138  133  126  
1.12612  0.448126  7.68886  249  246  245  
1.92668  0.455953  7.81704  118  115  111  
2.25949  0.471784  8.00771  86  82  79  
2.58477  0.507657  8.59516  81  75  72  
-1.43924  0.372023  6.40265  167  164  149  
-0.800776  0.40466  6.93102  139  135  123  
-0.51381  0.420698  7.13843  125  119  106  
0.240873  0.444719  7.43508  64  61  56  
1.81097  0.45699  7.63662  120  118  113  
2.28884  0.513312  8.44633  83  80  75  
2.83936  0.497348  8.27287  142  140  137  
0.936099  0.461226  7.59442  65  60  56  
1.99143  0.470718  7.77403  84  80  76  
2.51033  0.499011  8.16413  132  129  125  
-0.381405  0.443868  7.1726  84  82  76  
0.0560028  0.456858  7.33695  208  204  197  
0.96674  0.476809  7.56998  107  102  99  
1.72449  0.507801  8.01968  111  108  102  
1.72082  0.490658  7.77202  128  124  121  
2.05846  0.477453  7.7049  102  100  95  
-1.95606  0.369906  5.99948  109  100  89  
-0.329529  0.460625  7.26313  109  105  95  
-0.0594174  0.465251  7.20157  225  220  211  
0.0330182  0.46785  7.32987  205  201  194  
0.276356  0.470038  7.3898  126  122  114  
1.59359  0.501769  7.74542  105  101  93  
1.75853  0.50272  7.77711  76  70  66  
1.8478  0.503206  7.79385  59  54  52  
-0.0238179  0.473088  7.23721  169  164  156  
0.159996  0.480257  7.36013  112  107  97  
0.192178  0.484154  7.33977  49  45  38  
1.42704  0.506803  7.63189  124  121  114  
1.52085  0.518935  7.80946  98  94  89  
1.66429  0.508301  7.67824  57  52  48  
1.92403  0.515504  7.80576  120  117  113  
-0.348339  0.480626  7.15136  155  151  141  
-0.0603235  0.500657  7.4625  215  212  206  
1.39779  0.542219  7.94812  117  112  108  
1.57621  0.519441  7.65931  64  60  54  
1.98758  0.527751  7.8151  139  137  132  
-1.66665  0.414465  6.21091  145  141  127  
0.204457  0.497522  7.29107  113  109  102  
0.917108  0.529274  7.48928  126  122  119  
1.1986  0.519004  7.53414  107  102  98  
1.26051  0.525281  7.62454  124  119  115  
1.65563  0.537598  7.75134  117  114  108  
1.87183  0.538972  7.79189  123  119  116  
-0.640736  0.48431  6.946  139  135  123  
-0.469196  0.497574  7.14344  145  142  130  
-0.447195  0.497843  7.14941  117  114  105  
-0.284899  0.508974  7.2428  254  251  250  
0.460452  0.5205  7.39974  132  127  120  
1.47127  0.538452  7.66455  58  54  51  
1.17364  0.547817  7.6031  119  114  110  
1.32033  0.542925  7.55503  50  46  43  
0.625709  0.544749  7.43446  118  116  107  
1.09371  0.555189  7.61351  124  121  115  
1.24729  0.560021  7.61628  65  61  56  
-1.14502  0.488518  6.60559  145  140  128  
-0.10259  0.53838  7.20985  151  147  139  
0.0906997  0.546821  7.33502  78  74  67  
0.217986  0.548284  7.36592  42  39  33  
1.47464  0.576929  7.6298  115  112  104  
-0.452825  0.535337  7.06776  55  51  42  
-0.42014  0.535783  7.0765  99  96  90  
0.171575  0.558976  7.35336  120  118  111  
1.06763  0.584707  7.68465  78  75  69  
1.11218  0.575587  7.50749  132  129  124  
1.1486  0.575921  7.51495  56  52  48  
1.35618  0.577739  7.55649  114  110  107  
-0.343468  0.547643  7.09567  108  103  92  
0.0899973  0.562834  7.25525  63  60  55  
-1.25459  0.513664  6.59147  132  129  115  
-0.300039  0.562318  7.08039  76  74  64  
-0.259008  0.569215  7.16611  103  100  90  
0.0104559  0.572874  7.23443  128  126  121  
0.0444984  0.573315  7.24281  47  45  40  
0.630707  0.583623  7.35287  139  136  126  
1.00288  0.597356  7.48135  40  37  34  
1.30654  0.600289  7.54298  120  117  112  
-2.29151  0.463209  5.87344  70  69  62  
-0.13487  0.578666  7.22282  46  43  38  
0.38587  0.59193  7.29596  118  114  104  
1.03886  0.609121  7.4871  69  66  61  
-1.48768  0.51207  6.31309  155  151  139  
-0.419944  0.582091  7.04659  100  97  94  
-0.29981  0.594721  7.07713  39  36  28  
1.26124  0.630545  7.42486  125  123  115  
1.05153  0.636469  7.40875  116  113  108  
-1.15374  0.56902  6.59768  135  131  119  
-0.489956  0.620036  7.09953  117  112  101  
-0.458071  0.606956  6.96004  23  18  13  
0.0648344  0.624905  7.13998  119  115  105  
-2.01907  0.509369  5.91078  83  80  68  
-0.244676  0.627995  7.08796  106  102  92  
-0.965097  0.599454  6.72185  147  143  129  
-0.660412  0.621673  6.92837  118  114  101  
-0.389085  0.660812  7.24869  87  84  72  
-0.121573  0.633817  7.04438  113  108  97  
0.542662  0.653599  7.248  123  120  109  
1.09944  0.663655  7.33907  113  109  103  
-1.77161  0.548203  6.10559  120  117  103  
-2.0067  0.539689  5.89868  89  86  73  
-1.86597  0.549187  6.00992  112  108  94  
-1.29559  0.6194  6.48229  145  140  128  
-0.122858  0.684147  7.11268  153  149  138  
1.11031  0.708381  7.3343  142  138  131  
3.04353  0.881278  8.8244  171  166  160  
-1.91629  0.593689  5.99127  124  121  108  
-1.04382  0.672232  6.62296  124  120  108  
-0.811164  0.705445  6.75676  135  132  116  
2.20812  0.807759  7.79418  151  147  141  
-1.85651  0.632064  6.01056  100  97  83  
-1.63552  0.647965  6.12938  110  107  93  
-0.769013  0.719366  6.74543  118  114  99  
-0.50496  0.733116  6.88656  118  114  102  
-0.779896  0.74736  6.76169  149  145  132  
0.267638  0.791433  7.11802  113  109  102  
-0.291236  0.790334  6.93516  111  109  98  
-0.747775  0.781535  6.74586  140  136  122  
-0.520177  0.784473  6.82697  107  103  91  
-0.912757  0.776624  6.65203  114  110  95  
0.0661618  0.821689  6.99514  106  103  92  
0.365334  0.827693  7.06195  152  148  138  
-2.08308  0.687672  5.88407  90  88  79  
-1.53643  0.731117  6.23837  117  113  99  
0.832282  0.852053  7.11095  168  162  152  
-0.0213413  0.841025  6.97233  124  120  109  
-0.737027  0.822894  6.74512  139  135  121  
-2.25271  0.708313  5.82299  72  69  64  
-2.06641  0.715248  5.88926  63  62  51  
-0.0973855  0.871012  6.95081  106  105  92  
0.109906  0.896838  7.11811  128  126  114  
0.880028  0.886839  7.04494  147  142  134  
-1.16534  0.831864  6.43974  161  158  145  
-0.759324  0.864238  6.66558  112  107  95  
-1.62676  0.789441  6.06312  131  125  112  
0.251275  0.911791  6.95434  118  114  102  
-0.789422  0.883636  6.65583  122  118  103  
-1.33064  0.854687  6.27669  146  143  130  
-1.21208  0.867809  6.37567  139  136  123  
-1.43422  0.858326  6.26232  125  121  108  
-0.000396954  0.950248  6.80163  112  109  98  
1.4808  1.00637  7.18466  133  126  112  
-1.18335  0.888185  6.38244  123  119  104  
-0.761728  0.923126  6.61101  145  141  127  
1.11635  0.99808  7.07312  151  144  129  
-1.07759  0.91325  6.45874  112  109  96  
-0.921245  0.928171  6.5681  109  106  93  
0.814785  1.00046  7.03729  134  127  117  
0.968394  1.00573  7.04409  131  124  112  
-1.50138  0.875101  6.1766  116  113  98  
-1.12595  0.909556  6.39705  136  132  119  
-1.01932  0.925027  6.47399  113  107  93  
-1.09876  0.917842  6.42043  129  125  111  
-0.882315  0.939389  6.50997  115  111  99  
1.86614  1.11154  7.37485  105  96  83  
-1.65603  0.896803  6.00289  108  105  90  
-1.40774  0.927904  6.18546  115  111  97  
1.61734  1.10489  7.28576  127  118  105  
2.22629  1.14033  7.49945  103  97  88  
2.54894  1.16933  7.69488  65  62  54  
-1.2269  0.954101  6.30003  139  135  121  
-1.86033  0.896904  5.87737  79  77  65  
-0.332121  1.02911  6.68859  105  101  90  
-1.77597  0.919178  5.96432  85  80  68  
-0.840887  1.01187  6.49571  123  117  105  
0.923823  1.14865  7.24853  115  108  93  
-0.383603  1.04777  6.67429  122  119  105  
0.694295  1.09242  6.93047  127  120  107  
1.54599  1.13728  7.17293  111  104  90  
-1.62733  0.953759  6.07095  112  105  91  
-1.07474  1.03005  6.38452  126  123  109  
-2.34358  0.919866  5.62014  164  171  167  
-0.59787  1.08101  6.61859  123  119  106  
0.0227564  1.1026  6.74178  107  101  88  
2.20848  1.22978  7.47853  66  63  55  
-2.21738  0.930224  5.71088  126  124  117  
-1.79245  0.962815  5.89659  102  96  84  
2.49237  1.27299  7.63773  68  67  60  
1.64102  1.21605  7.24595  99  93  84  
-2.15697  1.0072  6.008  54  53  48  
-0.551247  1.11119  6.56001  195  190  178  
2.63053  1.33633  7.83118  74  71  62  
-1.83904  0.998344  5.8656  72  69  57  
1.31528  1.23647  7.06887  79  79  66  
2.65305  1.38403  7.79482  141  143  138  
-1.78304  1.0352  5.89658  79  76  64  
-1.00582  1.12776  6.33057  112  108  96  
2.51111  1.40473  7.77115  49  44  38  
2.56084  1.39095  7.70022  84  79  72  
-1.44291  1.09512  6.08638  103  97  85  
0.0545666  1.21553  6.73472  99  93  81  
0.339681  1.22586  6.77296  93  88  77  
1.37656  1.24295  6.87427  64  61  55  
2.58339  1.42571  7.69543  249  246  247  
-2.03671  1.09234  5.90293  69  68  59  
-1.56868  1.09076  5.95873  97  90  78  
-0.174001  1.22561  6.61673  109  103  92  
-1.65469  1.09561  5.93299  101  98  84  
-0.813314  1.1838  6.37539  98  94  80  
-2.46371  1.06657  5.68208  82  82  76  
-0.347212  1.27782  6.59058  88  85  72  
1.47334  1.33784  6.87334  42  39  32  
2.49845  1.45782  7.46949  176  170  176  
-1.45684  1.18263  6.03201  109  104  92  
-2.12817  1.14125  5.7825  35  33  25  
2.53489  1.55006  7.68849  163  159  154  
-0.141054  1.32321  6.54734  91  89  79  
0.44592  1.38205  6.77245  86  85  77  
2.20509  1.47235  7.22862  184  182  177  
0.631455  1.42328  6.84826  82  80  73  
0.889217  1.48136  7.02448  43  38  31  
2.34308  1.59768  7.57344  41  37  32  
-1.04102  1.2992  6.19727  85  83  71  
-0.170522  1.38016  6.55209  68  64  56  
1.7468  1.48591  7.02209  155  154  151  
2.26837  1.60731  7.56154  41  38  33  
2.52872  1.6295  7.66962  58  56  53  
2.32919  1.6198  7.56677  101  97  92  
0.139013  1.45144  6.72189  105  103  95  
0.658643  1.5006  6.90998  41  37  30  
1.98902  1.60103  7.395  50  46  41  
2.14599  1.62136  7.46439  91  90  83  
1.90824  1.61027  7.35785  40  34  33  
-0.0700163  1.44882  6.61262  71  69  62  
-2.40427  1.24608  5.68743  37  36  34  
-1.99432  1.26033  5.76288  59  59  53  
-0.879971  1.36462  6.21707  99  96  85  
0.531687  1.46749  6.64512  79  72  62  
-2.27362  1.25057  5.67261  154  158  157  
2.11898  1.6649  7.45151  150  147  140  
0.117857  1.50105  6.71107  71  68  61  
-0.0492265  1.49934  6.61069  63  61  52  
0.41256  1.54296  6.74315  131  121  103  
0.444609  1.54414  6.74901  198  190  171  
0.253043  1.55706  6.7106  88  79  64  
-1.71722  1.34959  5.82931  79  77  70  
-0.22134  1.51644  6.50739  63  61  56  
2.33129  1.75784  7.45866  93  88  77  
-2.22958  1.33082  5.69894  151  156  152  
-2.04742  1.33076  5.68595  236  232  228  
-1.41339  1.39974  5.9707  76  74  63  
-0.351765  1.52962  6.49567  77  74  69  
-1.95228  1.35988  5.77249  40  38  28  
-1.92767  1.36152  5.77991  61  59  52  
-1.09308  1.44108  6.11134  101  98  88  
0.0857895  1.62282  6.80431  124  117  105  
2.25707  1.77809  7.44494  81  78  67  
-1.30148  1.4388  6.05796  78  76  68  
-1.24747  1.44185  6.07185  93  90  81  
-0.584943  1.52282  6.3805  83  82  71  
1.26693  1.68602  6.98243  130  128  121  
-1.90161  1.37548  5.72918  39  37  28  
-1.5894  1.4109  5.86276  88  84  76  
-1.75883  1.39473  5.75747  95  94  84  
0.909187  1.70526  6.92147  94  91  88  
2.28953  1.83362  7.4367  70  67  65  
-0.37131  1.59702  6.48381  62  62  53  
-0.253727  1.61896  6.55338  70  67  62  
-1.64837  1.44276  5.8445  87  85  80  
-0.770966  1.55529  6.27165  117  115  108  
-0.281259  1.61133  6.48358  31  28  22  
-1.82745  1.43886  5.80664  52  49  44  
-1.69051  1.4489  5.83225  63  61  56  
2.58576  1.97287  7.84474  63  61  57  
-0.979969  1.56544  6.17535  59  56  51  
-0.410942  1.64379  6.47001  97  91  80  
0.643015  1.72278  6.73809  108  105  100  
-0.440797  1.65205  6.46266  63  56  45  
-0.377076  1.63871  6.4137  143  133  120  
1.03073  1.76405  6.86312  103  98  87  
-1.54524  1.50282  5.86989  71  68  62  
-0.406708  1.64689  6.40647  124  115  100  
-0.612865  1.64611  6.36152  86  82  76  
0.421638  1.74434  6.71563  55  52  48  
-1.72694  1.49241  5.77509  99  93  83  
-0.583482  1.65721  6.3669  72  66  54  
0.250085  1.73005  6.62024  45  42  37  
-0.641858  1.66373  6.35323  71  66  57  
-1.326  1.58399  6.04141  61  58  52  
-0.741101  1.65138  6.26937  36  33  22  
-2.1452  1.48872  5.63757  71  72  63  
-0.986966  1.6306  6.15225  60  57  53  
-0.664302  1.71596  6.47184  139  133  119  
-1.06233  1.63517  6.14951  59  56  50  
-0.817991  1.66568  6.26642  51  50  46  
0.255625  1.71892  6.44969  83  81  74  
-0.904052  1.65364  6.18567  34  33  26  
-0.867669  1.63935  6.13475  55  53  44  
-1.65249  1.53478  5.73688  195  194  180  
-1.51506  1.59206  5.93147  42  38  30  
-0.959965  1.65975  6.17197  38  35  30  
-1.19729  1.64743  6.05478  73  68  61  
-1.17015  1.64911  6.06139  55  52  42  
-1.14295  1.65079  6.06797  102  98  86  
-0.0177  1.7971  6.579  43  40  35  
1.40172  1.83484  6.72626  188  188  189  
-2.0705  1.53064  5.60316  75  72  64  
-1.69806  1.57422  5.7664  217  215  205  
-0.293696  1.76008  6.35427  113  111  118  
0.805444  1.87968  6.76027  52  50  47  
-2.05581  1.69228  6.14272  130  135  141  
0.665431  1.89419  6.73503  40  36  35  
-1.13442  1.68807  6.03433  227  227  214  
0.878139  1.88567  6.65682  186  190  188  
-0.904579  1.72314  6.00087  168  167  166  
-0.560902  1.79462  6.23327  106  104  107  
-0.43591  1.80144  6.25882  35  33  28  
-0.114795  1.81813  6.30555  100  99  88  
0.363954  1.9124  6.61491  60  58  53  
0.693182  1.83706  6.38589  133  138  142  
-0.493642  1.80768  6.2461  35  33  29  
0.662912  1.91648  6.60048  121  125  128  
-0.697349  1.79703  6.1581  109  108  112  
-0.474218  1.82747  6.24801  74  75  66  
-1.77134  1.95554  6.69547  166  168  181  
-1.54631  1.8156  6.17001  181  182  195  
-0.367967  1.86123  6.25014  98  98  86  
0.134222  1.94156  6.50526  33  31  29  
-1.77033  1.73497  5.73863  92  90  81  
-0.920255  1.84813  6.10383  30  27  29  
2.03856  2.19447  7.20011  54  50  46  
-0.16509  1.94686  6.34101  36  32  32  
-1.66485  1.7347  5.65578  86  85  75  
-1.01113  1.84258  5.96614  72  69  66  
-1.6086  1.80917  5.83542  91  88  82  
-1.24225  1.84486  5.91155  84  83  76  
-1.36946  1.83551  5.82416  89  88  80  
-0.992247  1.73569  5.51046  87  85  76  
-2.2953  2.27255  7.20107  54  55  54  
1.48447  2.20506  6.86734  102  98  90  
3.24753  -2.54825  10.9619  159  160  160  
3.81359  -2.3559  10.0519  74  69  63  
2.97732  -1.96069  8.13884  70  67  57  
4.52734  -2.49  10.9219  108  102  99  
3.02362  -2.18741  9.37478  66  62  54  
3.53554  -2.16224  9.26223  82  77  73  
-2.21188  -1.91307  8.03758  68  62  51  
3.35268  -2.04301  8.72169  135  131  127  
3.91519  -2.16692  9.38592  153  152  148  
-1.28464  -1.6839  6.85702  210  211  202  
2.54383  -2.01652  8.61519  168  165  163  
-1.38786  -1.66857  6.83763  215  216  205  
-1.30689  -2.01063  8.637  136  133  122  
2.24383  -2.04899  8.86954  226  228  224  
1.61779  -2.2372  9.92771  210  212  209  
1.63658  -2.28679  10.1889  227  230  226  
1.84533  -2.20542  9.75032  233  235  229  
2.56281  -1.89229  8.09735  227  230  226  
2.58714  -1.73419  7.28527  232  234  229  
5.17514  -2.60924  12.0468  203  205  200  
5.01494  -2.40982  10.976  203  205  199  
-1.93754  -1.68767  7.01714  101  94  82  
-1.58229  -1.68305  7.03457  216  218  207  
-1.3946  -1.65518  6.88056  149  144  132  
0.281732  -1.96891  8.56257  225  227  221  
3.3886  -1.94567  8.48962  238  242  235  
4.12115  -2.45249  11.2416  232  234  229  
0.613794  -1.73202  7.41502  232  233  229  
1.09515  -1.98517  8.72374  225  227  224  
-1.46305  -1.63671  6.8723  120  113  101  
-1.48779  -1.6671  7.09263  139  137  124  
-1.16915  -1.65326  7.00535  192  193  185  
-1.11738  -1.67098  7.06924  187  187  176  
-0.859712  -1.97812  8.73298  199  199  189  
3.02107  -2.15894  9.78049  233  236  231  
-1.51303  -1.63454  6.94918  144  142  128  
-0.0428749  -1.94497  8.66492  205  202  188  
1.12821  -2.18656  9.96818  227  229  224  
2.63165  -1.98829  8.93992  237  240  235  
3.13796  -2.11311  9.60732  224  226  221  
3.30514  -1.91464  8.54248  200  200  195  
-1.3382  -1.62194  6.93287  197  198  187  
-1.27111  -1.63336  6.9921  192  193  183  
-0.0345215  -1.63417  7.03382  220  219  203  
0.154867  -1.98872  8.97064  205  205  193  
3.02358  -1.93343  8.69627  201  202  196  
-1.52824  -1.62886  7.03845  190  188  177  
-0.259083  -1.27381  5.19858  143  146  158  
1.60034  -2.09062  9.6731  182  184  176  
1.67745  -1.86166  8.42698  191  191  184  
2.05546  -1.65451  7.27875  192  193  187  
-1.91056  -1.57962  6.87463  198  202  193  
0.32236  -2.02715  9.33432  233  232  216  
-1.75578  -1.51147  6.84902  206  204  192  
2.34728  -1.89963  9.21984  214  213  209  
2.15364  -1.68071  7.98965  132  134  129  
-0.281556  -1.53913  7.24258  44  39  35  
2.70711  -1.93192  9.66959  124  121  109  
-2.10601  -1.49725  7.24418  183  182  174  
1.44068  -1.61438  7.88314  49  43  34  
2.33902  -1.83814  9.28809  49  44  37  
2.48945  -1.81378  9.12783  56  52  42  
-1.84834  -1.39916  6.56171  224  223  211  
-1.82928  -1.36818  6.72927  24  21  16  
3.00189  -1.71145  9.23494  163  160  146  
5.05385  -2.17909  12.5909  174  170  157  
-0.239715  -1.37493  7.33048  103  98  85  
2.94666  -1.67414  9.82704  153  147  132  
3.47698  -1.43938  8.38748  155  151  137  
2.8445  -1.34136  8.16061  141  135  118  
3.34077  -1.3351  8.35202  140  136  122  
3.51756  -1.24181  8.45697  126  122  109  
-1.38863  -1.05803  6.88016  114  108  96  
0.893015  -1.00935  7.6936  95  90  77  
3.57108  -1.06747  8.5252  115  109  99  
3.75192  -1.03276  8.66839  115  111  98  
2.80337  -0.968322  8.17966  98  92  81  
3.27389  -0.979702  8.37281  118  114  102  
3.00772  -0.921351  8.32299  115  111  99  
3.57935  -0.920156  8.54136  109  106  95  
0.783279  -0.774909  7.66123  27  24  18  
6.08037  -1.07717  13.2699  119  116  102  
1.07218  -0.760364  7.79966  83  78  74  
0.419482  -0.731474  7.57896  44  37  33  
0.309549  -0.726977  7.62545  83  79  70  
3.17082  -0.763346  8.30711  82  79  68  
3.28227  -0.763664  8.43028  34  30  23  
-0.737088  -0.693402  7.23641  84  81  73  
0.461524  -0.714811  7.60292  73  68  63  
3.05655  -0.743552  8.32232  92  88  78  
3.25316  -0.752795  8.4871  96  92  84  
3.52928  -0.752675  8.58544  115  111  98  
4.10369  -0.777756  9.03318  68  65  56  
-0.166744  -0.685911  7.35047  36  32  28  
-0.0818614  -0.693951  7.38501  52  46  38  
3.18213  -0.724773  8.47386  44  39  35  
3.66452  -0.735525  8.63878  37  33  26  
3.92018  -0.7347  8.73419  49  46  40  
3.99659  -0.722119  8.75166  122  119  111  
2.98772  -0.682244  8.28702  38  34  29  
3.25633  -0.696551  8.42946  35  31  24  
3.62046  -0.699794  8.60931  109  105  97  
3.81647  -0.705474  8.71493  113  109  100  
3.12749  -0.688668  8.42378  114  111  101  
3.21381  -0.682543  8.42126  93  87  76  
-0.0398584  -0.629283  7.37308  50  44  44  
3.68112  -0.673462  8.62454  84  80  71  
3.21602  -0.653632  8.36208  76  70  61  
0.0517807  -0.610737  8.15437  159  159  149  
0.30797  -0.62612  7.68416  212  212  204  
3.28726  -0.643584  8.43963  40  37  30  
3.63902  -0.65313  8.64008  49  44  36  
1.95338  -0.614008  8.04923  24  20  15  
3.23023  -0.629393  8.42818  103  97  88  
-0.432302  -0.580485  7.23788  203  203  199  
-0.403735  -0.576622  7.28289  190  192  187  
3.64013  -0.604605  8.6214  33  29  24  
3.91798  -0.606484  8.85288  109  105  98  
3.99466  -0.607502  8.86947  212  208  203  
4.092  -0.610742  8.95734  92  88  80  
-1.12512  -0.540278  6.86031  112  107  94  
3.09682  -0.585597  8.56774  93  89  79  
3.28939  -0.590078  8.44351  98  93  84  
3.83907  -0.58962  8.77102  246  244  238  
-0.269636  -0.547632  7.07831  224  226  213  
1.72644  -0.584591  8.87809  78  74  65  
3.24666  -0.576126  8.435  41  37  28  
1.3961  -0.548228  7.67607  48  44  39  
4.07913  -0.56802  8.9587  239  233  230  
1.0657  -0.536134  7.76836  112  108  96  
1.14331  -0.535655  7.7297  42  38  34  
3.1901  -0.54865  8.42414  111  107  95  
2.61506  -0.526957  8.23628  42  37  32  
3.55511  -0.521559  8.60904  132  127  115  
3.61444  -0.52224  8.6221  56  52  43  
3.24915  -0.509177  8.4394  32  27  23  
3.67595  -0.481805  8.63873  111  108  100  
1.2754  -0.468144  8.0436  134  131  118  
3.29399  -0.4694  8.45159  110  105  94  
3.52911  -0.43923  8.60886  90  85  76  
2.56181  -0.421633  8.2269  49  42  40  
-1.07816  -0.38713  6.84271  30  26  19  
0.824953  -0.398275  7.76017  180  178  173  
3.30876  -0.389406  8.5379  100  97  86  
3.4422  -0.383434  8.52945  40  34  31  
0.708634  -0.376756  7.46959  129  128  122  
2.76112  -0.377129  8.23431  122  115  106  
2.46422  -0.361921  8.22592  152  148  147  
2.71627  -0.357282  8.26369  50  45  38  
3.19634  -0.354355  8.41254  45  41  35  
3.51689  -0.356823  8.548  92  88  81  
3.73066  -0.344872  8.80734  133  127  119  
-0.915749  -0.344898  6.92657  145  141  132  
-0.266608  -0.35525  7.00207  122  118  112  
0.90921  -0.343158  7.70263  64  60  53  
0.480771  -0.327801  7.5981  32  28  24  
3.32706  -0.328338  8.50619  43  40  36  
3.48807  -0.322574  8.58271  121  115  107  
3.12393  -0.313515  8.46008  115  109  106  
-1.64567  -0.311759  6.44884  126  121  109  
3.66985  -0.295928  8.69055  174  171  166  
0.535115  -0.291543  7.66501  106  101  91  
2.49494  -0.290168  8.21336  109  103  94  
3.08174  -0.272843  8.45187  84  80  75  
-0.568177  -0.280012  7.10653  24  22  15  
3.32892  -0.25998  8.57293  88  83  77  
3.58001  -0.254585  8.60799  175  172  169  
-0.581037  -0.256838  7.15196  56  53  43  
1.34186  -0.213563  7.98855  118  115  113  
5.00287  -2.62159  11.0524  85  84  73  
4.354  -2.67459  11.5537  105  101  92  
4.26255  -2.21988  9.83289  236  238  232  
3.57934  -2.57679  11.8697  215  217  216  
3.85245  -2.11367  9.30743  233  236  230  
2.84528  -2.07259  10.8048  55  49  40  
5.79758  -2.37085  13.9476  179  175  162  
0.828297  -1.08036  7.96375  81  75  66  
3.62139  -1.13846  8.86752  110  107  94  
4.16895  -1.00823  9.21816  128  122  111  
1.04706  -0.834734  8.04562  61  57  51  
4.01521  -0.765401  9.06706  47  45  36  
2.39623  -0.61717  8.32499  31  28  24  
3.27108  -0.581584  8.72014  35  29  25  
3.23279  -0.554256  8.76045  211  208  199  
-0.157661  -0.495994  7.24145  200  201  196  
2.69318  -0.443454  6.36024  152  148  141  
0.80581  -0.388648  7.94888  108  104  101  
0.572827  -0.382299  7.70018  101  98  93  
0.671237  -0.334283  7.61371  43  39  36  
3.28509  -0.261517  8.61027  89  82  80  
2.49384  -0.224552  8.34307  55  50  46  
2.12082  -0.219388  8.25492  118  113  106  
2.72332  -0.198918  8.60581  102  94  86  
4.0854  -2.67814  11.985  165  166  161  
1.09646  -1.49117  6.21183  200  201  195  
2.516  -2.11501  11.083  72  65  54  
0.345034  -0.743513  9.30818  70  66  62  
