1131
-9.39095  2.83901  75.3683  195  203  216  
-5.01657  1.76758  48.0788  130  143  161  
-1.57091  0.875694  22.8575  71  83  102  
-1.40587  0.855774  22.36  59  75  98  
1.55466  1.44986  38.8585  76  77  87  
2.39783  1.5855  42.3361  77  85  95  
3.42262  1.67434  45.1278  138  140  151  
3.5058  1.67122  45.0765  144  145  158  
3.80483  1.72555  46.655  77  84  97  
5.09899  1.80382  49.2644  59  66  79  
-7.37466  1.90427  48.1551  201  213  227  
-5.96575  1.94836  50.7932  169  176  195  
-0.946189  0.886632  22.7964  52  65  90  
-0.136207  1.11623  29.0801  32  52  77  
1.18262  1.54939  40.3526  58  65  75  
1.2561  1.49486  38.9329  147  156  169  
1.44194  1.48947  38.8616  48  52  64  
2.47499  1.6225  42.2543  145  152  161  
3.50783  2.01142  50.9183  72  78  86  
4.07299  1.84255  48.0291  124  131  142  
-15.1235  4.45168  111.047  182  191  200  
-9.46094  2.98679  75.3549  121  132  147  
-5.94455  2.13589  54.5577  139  151  169  
1.81195  1.51027  39.0455  126  129  137  
4.04999  1.7114  44.607  144  149  159  
5.14315  2.00691  51.3917  128  135  147  
5.48556  2.07869  53.3295  102  113  123  
-27.9006  7.70196  182.893  164  172  188  
-1.38959  0.937646  22.7998  83  105  131  
-0.0514612  1.16925  29.018  70  94  118  
2.01862  1.59777  39.8969  148  150  160  
3.11887  1.81139  45.1471  123  130  140  
4.95401  2.06351  51.4855  138  145  159  
-9.34008  3.11736  74.9736  119  133  148  
-7.36546  2.53251  60.7702  128  132  150  
-7.51851  2.6612  63.2216  135  147  164  
-5.91166  2.12561  52.1972  154  171  189  
-4.83888  1.93848  47.705  208  224  238  
-1.55656  0.981946  23.3022  93  115  136  
-0.874381  1.29958  30.5458  46  56  78  
1.40054  1.59935  38.7559  168  179  189  
3.78704  1.89852  46.435  70  78  89  
4.80977  2.08354  51.3004  100  110  122  
-14.722  4.1889  97.8525  163  174  190  
-6.54542  2.43835  57.2407  143  152  170  
-4.61623  1.74638  42.7411  105  121  139  
0.946561  1.70705  40.2792  57  56  65  
0.931164  1.54746  36.8606  198  209  218  
1.97677  1.67334  39.8305  134  137  151  
2.50373  1.77808  42.0493  136  141  149  
4.26666  1.99604  47.8448  153  161  169  
-16.6091  5.12652  116.32  180  186  196  
-9.59166  3.52771  79.4435  145  156  170  
-2.51928  1.38868  30.6721  42  51  67  
1.13842  1.67948  38.7743  194  203  216  
1.42368  1.66339  38.0627  95  105  117  
1.582  1.66581  38.6054  150  159  174  
1.84638  1.77555  41.2765  92  99  115  
3.27466  1.92996  44.8899  59  68  79  
3.73591  1.9863  46.3558  137  139  151  
4.72044  2.0973  49.2686  71  76  90  
5.02609  2.20075  51.207  117  121  134  
-12.9584  4.17589  93.6225  165  175  183  
-11.1682  3.75239  84.2052  214  222  233  
-13.6102  4.89554  108.058  164  174  191  
-5.29447  2.10049  48.0867  117  129  150  
-5.01173  2.04276  47.3338  196  212  226  
-0.135624  1.34316  30.0786  45  62  84  
0.885305  1.6665  37.5223  196  215  227  
2.91435  1.91143  43.3552  111  120  128  
4.74543  2.26223  51.3759  134  141  152  
-30.5568  9.36912  199.403  154  164  178  
-1.49583  1.33845  29.1719  62  82  111  
1.24717  1.74802  38.6526  190  195  211  
2.17793  1.90546  42.0435  77  81  92  
3.43011  2.08552  46.4551  131  132  141  
-8.88747  3.29713  70.8903  113  120  134  
-5.32399  2.26036  49.6078  186  201  213  
-3.92799  1.85124  41.0391  64  69  91  
-1.33469  1.04868  22.561  79  101  133  
1.16588  1.83867  39.3746  158  170  186  
1.55363  1.83549  39.8474  98  104  120  
1.69346  1.82375  39.2187  69  79  96  
1.98495  1.88075  40.5526  118  121  134  
2.41361  1.9362  41.8965  124  129  137  
3.63836  2.11837  46.2518  118  124  136  
4.07655  2.19339  47.5276  129  132  142  
-5.54656  1.70818  34.5907  128  141  153  
-6.14789  2.67644  55.85  175  186  201  
-0.299499  1.51224  31.7932  62  72  91  
3.79229  2.33794  49.0151  72  72  85  
3.80258  2.15285  46.0779  82  85  95  
4.36782  2.31948  49.3011  82  85  97  
-10.5022  4.18542  84.9034  160  167  179  
-7.60202  3.06263  63.1876  114  122  137  
-6.2103  2.70203  54.6371  160  169  190  
-1.36851  1.38191  28.3113  23  37  61  
-1.21101  1.87586  37.4377  44  58  75  
0.98459  1.86375  38.6296  203  217  231  
2.21038  2.02033  41.8867  132  137  149  
2.53484  2.00828  42.1576  82  87  97  
5.34954  2.63675  55.1622  80  86  101  
-33.3716  10.9618  215.35  162  171  182  
-19.1242  6.24944  124.841  189  197  211  
-4.90139  2.13844  44.3972  152  166  181  
-5.2732  2.42986  49.1218  206  213  225  
-4.84961  2.29594  47.3736  192  198  208  
-2.77955  1.64945  32.9342  57  73  90  
1.2421  1.89103  38.494  124  135  153  
1.4992  1.88256  38.3971  159  170  186  
3.21081  2.1792  44.6034  136  135  143  
3.79372  2.23744  45.9698  122  125  136  
6.40443  2.72166  56.1053  51  59  74  
-11.0523  4.35559  85.6699  113  126  143  
-12.4235  5.05681  98.7553  182  193  205  
0.712781  1.90559  37.1445  70  68  71  
1.01001  1.98822  39.2505  140  151  167  
1.64898  1.96953  39.0647  85  93  110  
-15.5104  5.4879  105.503  121  126  144  
-13.0773  5.0882  98.2026  205  213  226  
-8.91289  3.83142  73.2816  193  201  211  
2.05101  2.06475  40.3064  84  89  97  
2.49161  2.13607  40.6793  113  117  127  
3.57005  2.43137  47.5103  131  140  154  
3.74593  2.42369  47.4111  62  68  85  
4.05114  2.39979  47.4766  70  74  87  
-19.087  6.58467  124.221  130  139  155  
-10.4179  4.48175  84.2296  182  189  200  
-5.35393  2.46295  47.8009  149  163  175  
-0.21847  1.49864  28.7751  57  76  103  
0.841957  1.95271  37.7431  195  208  216  
1.27503  1.99627  38.362  197  207  225  
1.89539  2.10686  40.317  129  137  152  
2.52479  2.24398  43.1434  129  138  149  
2.80775  2.2326  43.0043  67  71  80  
-12.7065  4.54134  83.82  129  139  156  
-13.6007  5.34292  99.2763  191  200  213  
-5.33525  2.81861  52.9763  150  153  162  
-2.55419  1.58626  28.7203  58  61  70  
-1.10704  1.81302  33.7814  59  66  83  
1.01819  1.85396  35.8425  156  170  185  
3.27082  2.43121  46.1029  136  143  151  
-19.0828  7.53557  135.298  184  192  202  
-12.3254  5.04139  92.0192  107  119  132  
-8.41829  3.81036  69.5898  133  140  157  
-5.87903  2.78917  51.7376  183  194  205  
-6.46828  3.18715  58.225  216  223  231  
-4.47545  2.21847  42.2108  207  219  230  
-2.32697  1.89811  34.7464  69  71  81  
-1.88725  1.82866  33.5426  61  79  102  
-0.310866  1.93081  34.6598  40  43  59  
0.261497  1.94599  35.4124  49  42  49  
1.01543  2.0757  38.3781  209  224  238  
2.19704  2.17044  40.1219  90  95  106  
3.35643  2.37521  44.2496  67  73  91  
3.86292  2.54688  47.1605  100  112  123  
-16.988  6.54032  117.13  226  234  247  
-14.9397  6.15125  109.445  164  173  186  
-12.0564  5.09049  91.3274  103  113  126  
-10.0721  4.42246  79.3425  212  220  231  
-4.82453  2.38181  44.0947  164  176  193  
0.992034  1.92843  35.5995  136  149  163  
1.47238  2.13121  38.1585  148  158  170  
1.60182  2.09351  38.5186  150  162  174  
3.77108  2.59368  47.1518  105  117  130  
3.80893  2.48656  45.6185  119  125  138  
4.36838  2.67441  48.7735  100  108  124  
9.29236  3.60991  66.4114  52  46  50  
10.8218  4.14485  75.7756  57  52  57  
-17.3323  6.47289  113.663  122  136  151  
-9.36792  4.6232  80.3727  148  157  174  
-5.29136  3.04711  53.3922  82  77  88  
-1.89467  1.98937  34.9855  25  35  55  
0.866189  2.15127  38.3526  59  61  68  
1.75  2.1808  38.7859  180  183  198  
1.82411  2.17846  38.7638  92  98  110  
-10.9202  4.90693  84.3423  215  223  234  
-5.67609  3.11665  53.6024  145  160  176  
-1.96506  1.96243  33.8706  56  71  89  
-1.66535  1.95387  33.797  28  42  61  
2.38455  2.35675  41.3897  95  98  106  
4.04609  2.77923  48.8621  99  101  115  
-12.1163  5.34786  91.1274  137  146  158  
-12.6529  6.1119  103.686  210  217  228  
-1.79308  1.99329  33.308  36  39  56  
0.932314  2.19992  37.5965  213  217  226  
1.12154  2.08314  36.5352  157  169  188  
1.32996  2.18844  37.4999  107  120  140  
2.78889  2.46742  42.714  76  80  87  
3.53924  2.73177  47.0985  123  124  137  
-13.4774  6.32716  105.451  215  219  229  
-5.8388  3.37059  56.1494  204  216  226  
-5.4359  3.19961  53.2879  155  168  181  
-1.35388  1.94836  32.6387  41  45  55  
-1.28992  1.94659  32.6245  39  40  50  
1.62894  2.22882  37.9534  124  132  146  
2.57585  2.59719  43.8042  126  129  137  
3.0513  2.59007  44.1625  71  70  81  
-5.69954  3.1234  51.0341  177  190  204  
-2.83837  2.29077  37.5593  42  41  52  
0.429971  2.5006  40.3048  68  64  71  
1.50131  2.30431  37.9538  146  159  169  
1.81652  2.31994  38.6021  162  178  190  
1.89024  2.31753  38.58  87  92  102  
2.10721  2.39247  39.8913  158  156  165  
-5.70315  3.46267  55.8885  175  186  200  
-0.239268  2.01616  32.7221  63  65  74  
1.08427  2.17181  35.64  177  192  207  
-9.56718  4.86152  77.7443  172  184  200  
-1.50075  2.28361  36.2711  70  73  85  
0.450745  2.15528  34.6465  50  44  49  
0.869661  2.28374  36.852  56  49  53  
2.9589  2.71395  44.0566  122  126  131  
3.56531  2.89894  46.8421  100  102  113  
3.65214  2.89468  46.7943  104  105  116  
-16.8764  7.24394  113.667  180  193  206  
-12.7466  5.849  91.89  143  155  170  
-7.28613  4.03176  62.9763  208  219  234  
-6.04088  3.58407  56.0061  197  212  226  
-4.76462  3.07909  48.1127  214  220  233  
-2.08773  2.22002  34.8067  60  66  80  
1.17961  2.36358  37.3444  148  163  175  
1.25145  2.36142  37.327  109  120  131  
1.54214  2.30223  37.02  144  160  174  
1.70044  2.42895  38.5141  105  118  137  
1.74209  2.24592  35.3247  104  109  121  
-11.1932  5.4834  85.5829  162  173  185  
-2.18465  2.18655  33.7056  37  38  49  
-22.4256  10.0621  151.176  147  156  169  
-16.2974  7.42106  113.128  180  192  204  
-10.6595  5.45528  83.2895  163  172  188  
-6.54298  3.89422  59.0491  135  148  165  
-3.92189  2.7795  42.1152  84  80  90  
1.32455  2.36833  36.5973  177  187  194  
1.7704  2.49637  38.4124  170  184  201  
2.46461  2.72987  41.8811  80  77  85  
-16.2236  7.84312  117.134  187  199  213  
-9.56784  4.66156  70.4075  179  189  200  
-10.3253  5.50277  82.2186  188  198  214  
-6.78656  3.96374  59.1766  144  153  171  
-2.82073  2.49535  37.3273  86  83  91  
-1.95972  2.35176  35.0373  62  64  74  
0.930132  2.39182  36.0518  199  200  205  
0.948553  2.28835  35.2538  197  207  216  
1.14018  2.4664  37.2392  189  204  214  
1.42815  2.39788  36.5274  97  103  112  
4.69711  3.41179  51.7305  86  91  103  
-9.5979  5.40417  79.0668  152  164  183  
-4.45709  3.04635  46.1757  68  60  69  
-2.74361  2.52651  37.2649  43  38  46  
0.135292  2.20669  33.0377  79  78  88  
1.76673  2.56594  38.3326  108  115  133  
2.75713  2.90333  43.3194  88  90  97  
3.02021  2.90202  43.99  104  104  114  
10.4475  4.9247  74.1562  81  88  95  
-7.29438  4.30958  62.5275  142  150  169  
-5.79498  3.49279  50.5728  160  167  188  
-5.06135  3.45129  50.1136  139  153  176  
2.3311  2.74334  40.2479  124  128  137  
3.53914  3.14959  46.497  96  99  110  
-3.70667  2.80383  39.5163  71  69  78  
-2.79942  2.64135  37.6071  81  74  78  
1.55981  2.61098  37.5891  169  178  190  
2.79159  2.9792  43.2035  154  158  167  
3.05719  2.98395  43.6349  128  134  146  
10.6611  5.20165  76.0882  57  54  62  
-13.1402  6.88125  97.0564  150  160  173  
-9.63547  5.40062  76.1795  100  106  124  
-6.44929  3.8661  54.0596  170  181  201  
-6.80724  4.17365  58.8616  221  225  239  
-6.73095  4.37402  61.8074  156  171  188  
-2.39929  2.49171  34.9893  48  43  51  
-2.15002  2.33457  32.7622  76  74  83  
1.31387  2.59545  37.0457  172  184  192  
-16.0259  7.84619  108.974  150  168  184  
-6.04833  3.89235  53.766  176  189  207  
-4.27839  3.26249  45.4461  189  197  219  
-1.79489  2.35529  32.6782  69  66  75  
-1.04599  2.02437  28.4968  62  59  68  
-0.229385  2.24767  31.4748  87  83  90  
1.72996  2.72698  37.9704  113  122  133  
1.90522  2.69901  38.1312  138  140  148  
2.34835  2.87724  40.7592  140  142  148  
2.62917  2.84138  40.0355  159  169  172  
-11.6395  6.51335  88.2341  139  153  165  
-12.4108  7.09278  96.196  197  204  216  
-7.98041  4.82166  66.1879  107  126  145  
-5.03395  3.62759  49.8441  132  153  174  
-2.01731  2.46514  33.732  66  65  71  
0.0461367  2.33634  32.3523  86  86  94  
3.22411  3.19844  44.5894  130  134  145  
3.47885  3.31691  46.2923  112  115  124  
-33.6689  16.8212  226.518  100  112  128  
-7.47387  4.72883  63.6539  189  199  216  
-7.89352  5.15417  69.0219  129  138  158  
-6.06845  4.07904  55.2732  189  201  221  
-3.89391  3.02084  40.619  125  138  164  
-3.61507  2.95896  40.0868  63  60  71  
-0.878907  2.28739  30.8297  79  76  82  
-0.679162  2.28935  30.2891  69  68  70  
-0.102731  2.33871  31.7018  48  46  54  
1.06185  2.61571  35.7763  117  128  139  
1.38087  2.69334  36.9165  104  106  117  
1.86823  2.83461  38.7137  94  104  113  
1.93585  2.83904  38.2804  117  119  130  
2.49682  2.94346  40.608  86  88  98  
3.13674  3.24203  44.5737  131  133  144  
7.39387  4.67695  64.7326  83  92  107  
-5.6496  3.91899  52.4004  187  204  219  
-5.5796  4.00758  53.2827  122  140  160  
-4.86125  3.62909  48.2313  188  203  221  
-1.2934  2.28301  30.0753  72  68  77  
0.347084  2.50396  33.6285  48  44  53  
0.957345  2.65107  35.7619  202  204  213  
2.16295  2.9645  40.024  142  142  152  
10.4699  5.66597  77.3088  33  36  47  
-9.87637  5.96531  78.2402  182  198  218  
-8.14885  5.16247  67.7092  189  201  226  
-4.26182  3.3548  43.9968  133  145  168  
-3.16038  2.70363  35.1621  212  219  231  
-2.10811  2.4822  32.6072  77  74  83  
1.83243  2.86069  37.8023  126  132  142  
3.08755  3.32303  44.4861  133  134  144  
-7.00734  4.61227  59.6931  113  124  147  
-6.75605  4.59576  59.523  117  127  148  
-6.60541  4.68391  60.3404  142  158  178  
-3.87087  3.24858  42.0801  206  221  238  
-3.04336  3.04186  39.7392  65  56  58  
0.00805507  2.41014  31.8514  77  78  88  
1.02432  2.71341  35.6781  162  172  182  
1.18416  2.76159  36.1188  104  110  122  
1.6238  2.78462  36.745  146  159  165  
-59.7575  31.4893  400.764  118  128  145  
-11.759  6.45165  82.7999  148  163  183  
-11.8877  6.70574  85.5991  148  158  174  
-8.70177  5.43757  69.0417  158  165  183  
-8.04591  5.26967  67.3987  199  210  227  
-2.34997  2.6601  33.8518  79  74  78  
-1.63368  2.56246  32.7129  59  52  58  
3.08022  3.40167  44.3804  130  128  142  
-18.611  10.0862  128.067  103  116  135  
-9.6171  5.7767  72.8419  175  182  196  
-6.36918  4.44562  56.1257  202  221  234  
-6.01905  4.424  55.9129  211  222  236  
-4.81823  3.72006  47.2697  212  220  238  
-3.34568  2.71325  33.9169  185  198  214  
1.86313  2.96117  37.681  140  146  155  
3.41072  3.56385  45.9763  126  129  137  
7.24125  4.97409  64.4731  48  57  70  
11.4071  6.6167  84.7345  60  61  71  
-13.9818  8.1272  101.339  138  146  163  
-9.7938  6.21922  77.5889  159  167  181  
-3.08157  2.92433  36.2462  231  231  231  
-1.3778  2.4348  30.5021  46  40  50  
-0.962935  2.52948  31.6052  51  43  46  
1.43616  2.95003  37.2218  113  121  128  
1.93744  2.93587  37.1384  83  85  92  
-13.6146  8.47648  103.949  159  168  179  
-7.4297  4.93349  60.3578  210  219  234  
1.08885  2.83932  35.5251  95  100  112  
1.17943  2.89093  35.9752  150  154  164  
1.54223  2.98025  37.1663  193  202  207  
2.46252  3.28487  41.1677  72  73  85  
3.11079  3.51684  44.2044  72  71  83  
3.53025  3.6373  45.7969  63  63  76  
4.71277  4.22406  53.0699  61  62  70  
-10.2827  6.01654  73.0462  168  181  195  
-2.95218  2.94899  35.9137  55  45  49  
-1.34069  2.4495  29.7658  79  77  87  
-1.16269  2.41672  29.5693  72  72  82  
-0.470371  2.53892  31.2362  85  77  74  
1.25868  2.86581  35.4562  176  185  192  
1.67555  3.06582  37.579  170  172  182  
-7.15824  5.19223  62.5211  137  148  170  
-5.45281  4.17485  50.2187  212  223  237  
-3.6665  3.14359  37.5326  212  218  234  
-3.32375  3.20567  38.5941  154  168  178  
-1.02065  2.47042  29.7263  84  85  95  
0.971539  2.86496  34.7591  141  149  157  
2.3627  3.39371  41.747  162  162  169  
2.71915  3.5034  42.41  69  78  90  
3.30987  3.58392  44.0084  131  131  141  
3.74708  3.85885  47.4597  142  143  151  
-12.5655  7.36804  86.9208  161  173  188  
-9.97125  6.49468  77.2161  192  206  217  
-1.16459  2.50008  29.7081  48  44  55  
3.35822  3.77825  46.1205  108  110  121  
-18.4035  10.6748  125.388  180  193  204  
-6.37019  4.5138  52.9681  202  212  227  
-6.05104  4.56972  53.3897  109  127  145  
-3.44065  3.06087  35.906  186  191  205  
-3.43006  3.44567  40.3325  215  224  236  
-2.87818  2.94529  34.6095  197  203  212  
1.10541  3.021  35.8412  96  102  111  
1.32159  3.11855  37.0487  175  179  187  
1.44262  3.00474  35.2994  155  163  170  
1.88337  3.21112  38.2594  110  112  121  
2.41253  3.43163  40.9959  82  84  91  
-10.8081  7.14593  83.0545  162  172  188  
-4.16671  3.29327  38.3599  177  189  206  
-5.27958  4.36655  50.4908  149  159  178  
-4.20652  3.59621  41.7568  210  220  236  
-1.6308  2.46673  28.7028  68  67  78  
-0.931417  2.54935  29.6479  50  48  56  
-0.642017  2.51166  29.4213  90  84  84  
2.06316  3.42797  40.1878  136  141  148  
3.77664  3.97977  47.2554  110  112  122  
-47.0692  26.6167  304.165  181  191  209  
-11.8175  7.51164  86.7382  178  187  197  
-9.95418  6.85557  78.3609  195  208  223  
-9.61691  6.82808  78.098  176  186  201  
-2.77625  3.1419  35.9493  72  68  73  
0.270951  2.7818  32.2592  85  77  85  
0.612598  2.90345  33.5611  80  80  91  
1.6751  3.174  36.9162  165  170  182  
2.49877  3.58327  41.6166  78  79  88  
3.12733  3.85498  44.889  130  133  141  
3.46242  3.87936  45.4867  59  58  68  
-23.592  14.042  159.553  203  209  224  
-8.58837  6.22532  70.7812  191  203  220  
-7.09722  5.45118  61.9902  177  185  204  
-5.44125  4.30528  49.1584  155  170  190  
-4.69769  4.05195  45.7874  187  204  225  
-3.78644  3.43379  38.7577  189  201  214  
-2.96037  3.10229  34.8507  133  145  160  
0.481792  2.93619  33.5386  78  76  87  
0.949514  2.96918  34.194  148  150  159  
1.13668  3.11566  35.7306  181  185  193  
-9.66397  6.38341  71.6205  212  219  230  
-5.68171  4.65409  52.3196  110  126  145  
-3.87624  3.43085  38.4883  164  174  191  
-3.23839  3.33079  37.2343  171  186  205  
-1.34275  2.71311  30.4625  62  65  76  
-1.04124  2.60081  29.3875  56  56  71  
2.59576  3.56748  40.7554  85  85  94  
-13.0107  8.43045  93.1315  197  206  222  
-6.89645  5.0054  55.5415  159  169  187  
-7.13273  5.3713  59.3552  122  134  157  
-6.45088  5.06171  55.9522  134  143  162  
-3.35556  3.14619  34.7007  171  181  196  
-2.79614  3.097  34.4289  171  172  179  
-0.957127  2.65672  29.5505  87  88  102  
0.207747  2.86998  32.1793  51  45  48  
0.57838  2.99393  33.4695  78  83  93  
1.44442  3.17085  35.6209  102  106  116  
-11.42  7.74789  84.7025  217  224  234  
-2.43722  3.07286  34.0248  57  56  66  
-0.510306  2.60269  28.6958  64  61  69  
1.66829  3.3045  36.7666  128  131  145  
2.78901  3.86536  43.0014  158  154  161  
3.6233  4.19306  47.0417  97  100  108  
-10.7586  7.5437  82.0664  141  152  164  
-8.67613  6.46736  70.3804  138  143  163  
-8.11759  6.18896  66.9965  131  138  161  
-4.34437  3.90334  41.9772  178  192  211  
-3.4512  3.21012  34.6424  100  118  142  
-2.84356  3.0939  33.4529  75  89  104  
-2.68676  3.11719  33.5573  133  144  158  
-1.15686  2.71374  29.5103  87  94  108  
-0.89685  2.81593  30.5272  64  69  83  
1.06324  3.14029  34.4503  182  188  196  
1.44156  3.23393  35.5509  174  180  189  
5.5161  5.10784  56.6757  85  89  100  
-11.7347  7.90845  84.5948  217  224  232  
-8.52358  6.27117  67.1126  177  186  202  
-3.5176  3.46989  37.1192  99  112  130  
-3.00541  3.22974  34.5619  125  136  153  
-1.98231  2.8878  31.1367  81  88  98  
-1.62337  2.91161  31.2932  86  95  113  
0.58325  3.29394  35.1259  67  65  76  
0.628295  3.18117  34.4576  46  43  55  
1.20763  3.11314  33.9896  178  186  197  
1.56675  3.31653  35.9074  100  102  112  
3.17702  4.15742  44.6306  60  65  74  
-13.0805  8.72342  92.346  146  154  164  
-10.3847  7.32737  77.5913  188  195  206  
-4.62625  3.80089  40.1444  161  171  188  
-3.4041  3.49933  37.0644  158  171  185  
-3.33096  3.49724  37.054  153  167  182  
-2.68441  3.05308  32.3243  131  141  153  
-0.784685  2.47827  25.9699  77  89  108  
1.40445  3.29769  35.4855  174  177  188  
2.10825  3.54638  38.4976  89  88  95  
2.67576  3.88325  42.0402  160  156  165  
-8.03689  6.05252  64.0955  143  153  172  
-7.13355  5.61753  58.8855  118  130  149  
-4.75953  4.15376  43.5032  199  211  226  
-4.31411  3.97592  41.6604  105  118  138  
-3.25442  3.52761  37.0044  130  140  154  
-1.77315  2.97075  31.2484  81  86  104  
-1.60642  2.90882  30.4494  49  57  77  
0.769605  3.13823  33.301  88  90  98  
1.19317  3.22853  34.3389  176  185  194  
1.97108  3.61182  38.3773  132  133  140  
-11.4675  8.08209  83.846  206  214  223  
-8.76041  6.95664  71.1747  137  148  166  
-7.73365  6.49939  66.5397  142  151  166  
-4.29488  3.74733  38.5915  173  185  201  
-3.57952  3.56939  37.0117  91  96  115  
1.36747  3.36121  35.4202  164  168  181  
1.55407  3.46934  36.5979  127  136  145  
2.15171  3.69749  39.1157  136  136  143  
2.22649  3.69462  39.0974  148  149  158  
-9.20248  7.03646  71.9423  111  116  134  
-1.89199  3.02904  31.2014  80  90  108  
-10.2938  7.56428  76.9134  137  143  154  
-5.536  4.73666  47.6519  125  139  157  
-3.31694  3.62668  36.8982  55  63  81  
-1.8374  3.12222  31.388  73  81  99  
-1.52495  3.04879  31.1492  60  74  96  
0.930574  3.14737  32.9057  135  141  150  
1.12345  3.3211  34.2473  134  143  154  
1.36478  3.42355  35.3508  76  86  100  
2.00533  3.58378  36.9335  149  151  156  
2.66443  3.9727  41.0606  64  66  75  
4.23174  4.79187  49.7812  84  87  99  
-6.59587  5.51325  54.4141  143  152  171  
-5.56065  5.00935  49.9641  175  191  210  
-3.36832  3.28385  33.1386  136  147  165  
-1.03927  3.00857  30.3446  41  48  69  
-0.625237  2.96985  30.1624  40  50  74  
1.05612  3.35294  34.2211  143  151  162  
1.55738  3.50557  35.6938  78  78  85  
-4.70233  4.397  43.3962  116  129  152  
-4.71851  4.81341  47.3811  94  100  122  
-3.48422  3.86356  38.369  104  110  127  
-2.95824  3.71527  36.9412  70  88  117  
-2.17146  3.31389  33.1397  40  51  70  
-8.58502  6.77932  66.6091  176  183  197  
-4.23723  4.58938  45.196  134  145  161  
-2.51066  3.4601  34.2413  41  56  79  
-2.26676  3.34551  33.1178  58  68  87  
0.171295  3.04309  30.2854  90  88  96  
1.08717  3.41235  34.153  109  117  129  
1.34698  3.57234  35.6337  141  145  159  
-62.846  40.8936  396.39  147  160  178  
-11.5702  8.57617  83.447  220  223  233  
-9.33375  7.84247  76.4639  124  136  152  
-4.99151  4.64981  45.2423  77  94  118  
-0.973923  3.24147  31.9501  59  69  88  
-0.310696  2.91118  28.5986  74  90  114  
0.636152  3.34663  33.0947  80  90  107  
-5.54853  4.9165  47.3584  88  96  116  
-5.62641  5.15199  49.6763  174  190  212  
-0.651989  3.40308  33.1371  55  73  95  
1.92035  3.80774  37.5339  143  138  144  
2.20806  3.79743  37.4758  89  87  95  
-4.06361  4.28892  41.1783  78  91  108  
-3.12605  3.84727  36.7971  35  46  66  
-2.03494  3.53746  34.0894  28  28  36  
3.48841  4.67123  45.6575  93  96  105  
-6.55544  5.81519  55.0318  147  158  178  
-3.61499  4.03217  38.1696  51  58  75  
-1.81261  3.48406  33.1215  59  60  70  
-8.56957  7.03995  65.9898  96  108  124  
-7.39246  6.21571  58.2409  156  166  185  
-2.80778  3.64742  34.233  24  16  20  
-0.679981  3.15829  29.9879  60  76  92  
0.273798  3.42329  32.6904  74  79  93  
0.851413  3.56768  34.0128  80  91  107  
1.44345  3.72541  35.4528  126  127  138  
1.54657  3.72326  35.4475  84  84  94  
2.2028  4.03247  38.6824  115  116  125  
2.54504  4.51429  42.9668  90  92  101  
-36.0332  25.2151  233.336  136  146  159  
-5.42192  5.09166  47.0656  167  176  197  
-5.70675  5.61186  51.7164  76  93  115  
-2.72339  3.32278  30.9786  38  30  39  
-2.79929  3.80205  35.3892  175  173  176  
0.856734  3.37776  32.1852  75  85  101  
-7.07652  6.2969  57.9801  71  77  99  
-5.92296  5.38567  49.3227  75  83  103  
-4.05932  4.4679  41.1624  84  98  115  
-3.52849  4.12875  38.0396  19  20  29  
-2.8023  3.707  34.1661  242  249  254  
-2.4688  3.4729  32.0057  216  224  233  
0.844745  3.60017  33.3885  58  67  84  
1.98063  4.0413  37.8502  141  143  151  
-10.1989  8.29596  75.6897  84  93  102  
-8.49768  7.20468  65.4336  155  159  173  
-7.73273  6.75865  61.3926  134  144  162  
-5.82973  5.66053  50.9826  165  173  191  
-3.25316  4.00895  36.6125  226  236  240  
-0.263503  2.98922  27.1431  30  45  68  
0.462649  3.50385  32.5777  52  52  63  
1.31634  3.763  34.9778  108  109  125  
1.86901  4.07691  37.8225  138  137  147  
-35.9172  25.6203  229.709  186  192  203  
-5.10963  5.38767  47.9217  53  71  97  
-3.96861  4.36349  39.4636  35  42  61  
1.66313  3.97472  36.5106  119  122  133  
3.1915  4.83147  44.4353  94  94  104  
-20.4172  15.3026  136.599  129  137  151  
-12.5103  9.90079  88.3414  111  121  133  
-9.12752  7.81526  69.7575  100  105  117  
-8.19115  7.25694  64.4981  110  119  134  
-3.84792  4.39427  39.41  13  8  17  
-3.59138  4.22805  37.9204  204  219  224  
-2.02614  3.54948  31.913  87  75  77  
-0.305485  3.44773  31.0867  69  85  105  
2.0472  4.13692  37.7233  123  123  132  
-46.6447  32.1565  288.212  154  166  181  
-10.2855  8.47003  75.2428  165  169  178  
-6.44561  5.83505  51.5756  91  104  124  
-6.54171  6.13191  54.0129  62  69  89  
-3.92093  4.4296  39.3713  21  18  24  
-0.23738  3.37422  30.1559  59  77  98  
0.221193  3.8271  34.6284  74  92  115  
1.22974  3.91386  35.2537  61  64  78  
2.64124  4.63421  41.9804  90  93  101  
-5.54685  5.55779  48.974  64  81  101  
-4.95653  5.5782  48.8119  27  19  29  
-2.33324  3.6105  31.8589  248  246  252  
-2.1336  3.43883  29.9439  57  46  51  
0.29027  3.74975  33.195  73  88  109  
2.3099  4.50808  40.4341  93  90  100  
-11.5742  9.30216  81.1896  105  121  135  
-10.317  8.58342  74.9378  163  169  177  
-5.45019  5.90373  51.2069  31  32  44  
-3.91207  4.49634  39.2824  208  222  232  
1.65636  4.10041  36.3629  56  61  77  
-16.6079  13.8451  118.515  184  194  205  
-3.98477  4.53143  39.2437  223  236  245  
-3.08181  3.91931  33.9421  133  148  155  
-2.85479  3.81027  32.8651  215  228  237  
-2.66086  3.78768  32.8336  182  190  199  
-2.39106  3.66706  31.8016  180  187  195  
-2.23023  3.57575  30.8813  224  227  235  
-0.0375105  3.62424  31.7487  19  33  54  
0.884766  4.01205  35.1638  88  98  113  
1.40836  4.13756  36.3441  90  98  115  
-9.85492  8.67565  74.2064  115  122  132  
-7.47726  6.68922  57.147  91  100  112  
-5.95933  5.69133  48.8304  133  146  164  
-6.33191  6.31691  54.046  83  89  103  
-14.0824  11.4015  95.8369  155  165  178  
-8.39044  7.14659  60.5073  124  134  142  
-4.94073  5.47041  46.4317  223  239  252  
1.4055  4.19991  36.2707  49  57  75  
3.07982  5.09401  44.0721  87  90  99  
-6.25932  6.4015  53.8757  155  164  180  
-5.1153  5.51129  46.3699  206  230  247  
-3.44617  4.12185  34.9317  175  183  195  
-4.92619  6.06725  50.9659  190  199  211  
-3.25972  4.07819  34.7246  147  158  169  
-3.03976  4.0064  33.8424  211  219  233  
-2.56433  3.7264  31.62  183  191  205  
1.22844  4.23511  36.2458  51  60  78  
-6.46621  6.42713  53.8421  109  117  139  
-4.46877  5.07961  42.3867  198  216  234  
-2.72896  3.83948  32.4412  168  181  196  
-2.39775  3.71557  31.4153  178  189  201  
-1.5448  3.54777  29.8308  92  81  81  
-1.22022  3.46799  29.07  95  84  85  
0.424862  4.00873  33.9052  58  79  101  
0.589732  4.00592  33.9033  73  92  112  
1.47278  4.26034  36.1926  87  99  118  
-30.195  22.3402  186.23  134  146  163  
-5.17765  5.34592  44.1959  120  127  143  
-5.28288  5.82519  47.8424  144  156  163  
-3.4261  4.68333  38.9826  169  179  194  
-2.50379  3.80701  31.6587  115  124  142  
-2.42018  3.97834  33.4015  205  209  220  
-2.096  3.61485  29.8337  202  205  215  
-2.02861  3.62356  29.6724  109  108  121  
-1.16273  3.49303  29.0499  58  48  51  
-1.07914  3.81218  32.1578  85  78  80  
1.68906  4.21703  35.7025  87  91  109  
-10.1062  8.9454  73.3953  143  144  157  
-4.23771  4.94243  40.5715  87  96  112  
-3.59391  4.36096  36.0707  170  184  199  
-1.83227  3.60417  29.7781  63  53  56  
-11.8141  10.3513  83.9359  161  174  186  
-9.1929  8.38075  68.2173  76  90  105  
-8.62975  8.3102  67.4292  79  82  100  
-5.62769  5.66961  46.1136  160  178  198  
-4.47141  4.96104  40.5307  145  155  174  
-3.0934  4.37635  35.9707  178  191  209  
-2.38877  3.98128  32.6147  190  192  207  
1.80765  4.49581  37.3168  62  66  83  
-6.69309  6.60644  53.5559  138  148  167  
-3.76535  4.61715  37.4437  81  90  106  
-2.38052  3.68158  29.7471  171  180  202  
1.11729  4.39204  36.0701  48  62  82  
4.80906  6.53113  53.9983  57  62  72  
-13.5366  11.9045  94.6683  106  120  136  
-10.5026  9.68343  77.3178  86  91  111  
-9.55083  9.00089  71.8713  141  148  164  
-4.75693  5.71575  45.5029  160  174  189  
-2.79205  4.17598  33.6409  141  154  172  
-2.03132  3.71862  29.7398  157  166  184  
-1.69328  3.59846  28.9176  91  83  92  
-1.35593  3.59601  28.9412  93  86  87  
-8.64214  8.45653  67.0129  120  124  128  
-8.51578  8.45935  67.052  167  169  177  
-3.26998  4.50683  36.0113  121  133  152  
-2.33293  3.91251  31.407  110  120  140  
-1.0442  3.53877  28.1758  89  82  87  
-0.622958  3.61563  28.9657  90  84  92  
0.537641  4.31913  34.8324  64  64  72  
0.615501  4.19874  34.1322  54  56  72  
1.16455  4.50781  36.3035  45  54  72  
-36.2966  27.8312  221.196  128  134  150  
-9.71034  9.09625  71.4892  169  174  188  
-6.24892  6.72411  52.8774  154  169  186  
-5.04148  5.80996  45.6887  148  166  185  
-2.20883  3.8697  30.5846  81  86  106  
-9.87868  9.62018  74.7944  127  135  143  
-1.60504  3.67344  28.8524  58  55  62  
-1.1515  3.57063  28.0874  63  58  63  
-1.07223  3.68871  28.9298  95  89  97  
-17.9952  15.632  121.028  175  184  194  
-10.4787  9.89297  76.5888  176  187  200  
-6.37029  6.82469  53.0462  195  207  225  
-5.10215  6.16235  47.9478  152  168  187  
-4.55697  5.62959  43.618  126  140  160  
-2.50138  3.92482  30.5121  56  63  85  
-2.20499  3.92254  30.5313  74  83  102  
-1.8234  3.8217  29.6644  73  81  101  
0.413833  4.17608  32.7476  44  40  50  
0.756762  4.30821  33.8354  65  60  68  
3.47804  5.95446  47.194  88  92  103  
-6.38283  6.52634  50.2863  168  176  188  
-4.84488  5.66448  43.5218  185  200  218  
-2.36331  4.07113  31.4476  120  132  156  
-1.6304  3.72381  28.8032  50  56  75  
-1.31341  3.63708  28.0523  79  92  111  
-0.452334  3.71511  28.8819  57  52  56  
-0.205171  3.81866  29.7285  54  55  66  
-13.459  12.3981  93.8409  136  149  161  
-11.5117  10.8004  82.362  100  115  131  
-9.5638  9.30042  70.9224  179  187  199  
-5.70864  6.54754  49.9613  159  172  190  
-1.71294  3.74939  28.7736  76  94  121  
-0.84912  3.66157  28.0877  49  49  56  
-0.675246  3.47287  26.6397  69  70  77  
-0.575817  3.6615  28.121  63  63  69  
-0.128117  4.23535  32.6455  60  73  91  
-0.0293757  3.87076  29.8184  82  94  117  
0.116282  3.95333  30.5948  73  88  106  
1.92108  4.98927  38.77  89  91  105  
-19.9911  17.8676  135.318  183  192  202  
-12.2617  11.8305  89.6098  123  132  148  
-5.9873  6.58492  49.839  141  155  170  
-4.74911  5.7353  43.4246  147  166  187  
-2.68399  4.26994  32.3527  85  103  133  
-1.96264  3.88457  29.574  48  65  91  
-1.48823  3.78922  28.7843  44  59  85  
-6.45231  6.64565  50.0625  188  199  206  
-6.20058  7.29611  54.6902  152  168  187  
-2.77838  4.28667  32.3485  55  73  101  
-1.06565  3.71042  28.0163  75  99  127  
-0.0891837  3.89474  29.6599  81  91  115  
0.507719  4.28742  32.6347  74  70  78  
-10.6396  10.1393  75.5966  122  134  147  
-10.5013  10.1466  75.6692  171  183  196  
-4.42059  5.56672  41.5356  59  78  107  
-2.23218  4.19211  31.3347  43  62  90  
-1.72284  4.06718  30.4453  87  105  132  
-1.18444  3.94965  29.6157  74  98  126  
-0.233359  3.92171  29.6278  82  95  118  
1.95473  5.19192  39.6006  93  98  110  
-8.8013  8.8808  65.7487  138  144  161  
-5.95259  6.39186  47.6326  203  213  229  
-0.638375  3.64045  27.2264  77  97  121  
2.60207  5.72129  43.2433  76  79  90  
-14.2181  13.1027  96.2928  81  88  104  
-6.76038  7.0842  52.0323  187  199  214  
-5.0299  6.10903  44.7591  93  103  125  
-3.43502  5.35061  38.9956  70  87  108  
-2.26822  4.38009  32.2825  83  104  131  
-1.30595  4.09886  30.3986  45  59  88  
-0.841741  3.88896  28.7686  74  92  119  
-0.831921  4.16177  30.4828  64  78  105  
-12.8421  11.6631  83.8065  152  159  175  
-6.859  7.47487  53.9627  150  157  174  
-5.91683  6.51521  47.3446  153  168  185  
-5.47531  6.49996  47.1131  171  185  205  
-2.23285  4.43493  32.2269  88  106  132  
-1.8003  4.29906  31.2734  53  62  89  
-1.49305  4.00994  29.3828  59  72  97  
-4.27481  5.73549  41.3044  92  111  139  
-2.64926  4.76362  34.3605  50  58  87  
-0.0896764  4.19559  30.491  51  57  74  
0.315109  4.45496  32.4426  81  81  90  
-8.6918  7.35267  52.0485  150  158  168  
-14.7105  13.785  98.112  115  125  138  
-7.54196  8.45791  60.2581  192  205  221  
-5.00408  6.2517  44.5295  69  77  98  
-2.68094  4.6385  33.083  78  96  122  
-13.6453  12.7245  89.5756  196  203  217  
-13.2605  12.7678  90.253  188  199  211  
-10.053  10.2332  72.3457  140  153  162  
-6.00439  6.93192  49.1797  213  223  237  
-1.91505  4.51678  32.1743  85  97  126  
-1.47636  4.26104  30.2676  43  52  80  
-0.604484  4.12748  29.5086  45  63  87  
0.0575645  4.34155  31.2443  80  86  99  
-10.982  11.021  77.3745  124  136  149  
-9.54295  9.93711  69.533  177  187  197  
-5.13417  6.6153  46.4963  113  130  150  
-3.38467  5.3966  38.1027  43  53  72  
-2.82974  5.02114  35.3444  79  92  120  
-2.4428  4.83315  34.2817  82  98  126  
-2.16921  4.69186  33.1779  61  74  102  
1.111  4.99337  35.7227  57  54  61  
-7.49867  8.08839  56.3794  176  185  197  
-6.65657  7.68565  53.6117  173  188  206  
-5.89339  7.00897  49.0572  169  184  203  
0.365756  4.42753  31.3509  51  47  54  
-13.2794  13.0573  90.1121  189  198  212  
-2.0921  4.45818  31.072  66  78  107  
-0.602995  4.20331  29.4352  44  58  81  
0.087723  4.42089  31.1629  52  53  64  
-13.5229  12.9584  88.7774  184  191  204  
-7.76918  8.78997  60.7069  103  114  129  
-5.9539  7.02744  48.3397  176  190  209  
-5.09788  6.42464  44.208  144  159  180  
-0.70852  4.37051  30.2949  89  101  124  
0.937377  4.9181  34.4389  53  50  59  
-10.0734  10.4627  71.4809  135  145  157  
-4.78919  6.49552  44.5879  147  158  175  
0.334286  4.50742  31.2658  94  90  97  
-14.3685  14.2134  96.471  106  113  129  
-7.54291  8.55833  57.9061  101  107  123  
-5.42131  6.71264  45.4139  75  88  111  
-3.59744  5.76084  39.1852  83  94  117  
-1.03163  4.55367  31.118  52  64  87  
-0.455445  4.57124  31.199  66  75  97  
-0.0891182  4.40318  30.2834  54  58  74  
-11.894  12.1733  82.0766  102  110  127  
-3.23562  5.77803  38.9502  73  84  110  
-1.96251  4.86804  32.9672  74  88  114  
-1.57923  4.87172  33.0351  78  91  113  
2.38636  5.94208  40.9678  63  63  77  
-8.86923  9.51322  63.9156  186  199  210  
-4.4582  6.30027  42.2515  52  69  89  
-4.13545  6.30734  42.3354  84  102  122  
-2.40803  5.22443  35.2494  81  95  121  
-6.73292  7.95882  52.9714  161  172  190  
-4.72374  6.55238  43.5083  88  106  128  
-1.02922  4.61607  31.027  80  93  116  
1.69785  5.59615  37.9956  57  62  74  
-5.64433  7.17112  47.2782  54  68  89  
-0.0594367  4.50586  30.1835  82  89  107  
-8.19726  8.88964  57.9686  148  156  169  
-8.28865  9.23063  60.4246  184  193  208  
-8.04159  9.1567  60.5529  139  147  161  
1.94183  6.08731  40.8238  91  94  105  
-6.21899  7.57023  49.2501  87  92  101  
-4.83573  6.42392  41.9365  93  108  130  
-5.62159  7.28029  47.088  139  151  171  
-3.93175  7.0871  46.2948  40  47  69  
1.10768  5.39564  35.5086  90  90  102  
-7.00568  8.43566  54.2008  136  147  163  
-6.06675  7.65515  49.1931  187  195  209  
-0.790412  4.60825  30.0057  75  88  107  
-0.198441  4.51361  29.2586  75  84  103  
-8.07229  9.1675  58.129  146  152  166  
-6.79796  7.84126  49.8538  141  146  159  
-6.50493  8.06644  51.5089  171  189  202  
-4.58823  6.04729  38.8288  111  122  143  
-4.35722  6.22758  39.7788  143  159  176  
-0.513066  4.77216  30.9166  76  91  113  
-0.426372  4.52235  29.1983  64  78  101  
-9.07711  10.1458  64.1441  186  195  210  
-6.58855  8.09682  51.3715  92  101  120  
-6.04979  7.72965  49.0557  87  100  117  
-4.5616  6.79698  43.186  175  195  211  
-1.91455  5.1149  32.6983  42  55  77  
-1.76041  4.90006  30.9308  43  51  68  
-0.154531  4.98875  31.9654  74  88  108  
0.832268  5.51645  35.4791  62  65  81  
1.59257  5.87905  38.021  97  99  106  
2.89562  6.847  44.4324  92  95  105  
-5.01124  7.11891  44.9355  172  191  217  
-4.63693  6.82677  43.0988  111  136  156  
1.95782  6.1281  39.425  98  97  105  
2.39223  6.35997  40.964  61  57  69  
-2.2709  5.51439  34.7022  40  40  56  
0.343597  5.02808  31.9699  45  52  72  
0.799679  5.15052  32.9032  44  49  64  
2.40232  6.64967  42.5643  86  86  96  
-10.7868  11.5935  71.7027  135  139  148  
-7.63521  9.07052  56.4838  107  111  128  
-4.91337  6.65096  41.5508  140  152  172  
-2.13519  5.54629  34.7041  60  58  70  
1.95349  6.1913  39.3384  99  97  102  
-7.58518  8.80104  54.612  141  148  164  
-6.45759  8.2577  51.1348  110  122  141  
-4.31276  6.1409  38.0142  163  182  203  
-4.59742  6.84386  42.285  183  198  215  
-2.43335  5.97819  37.1825  77  77  87  
-1.73873  5.3991  33.6041  51  50  62  
-1.3178  5.40298  33.7755  56  63  81  
-0.402593  5.07608  31.803  69  85  109  
0.0610654  4.92776  30.913  72  85  110  
0.836805  5.24459  32.996  50  53  70  
-3.95423  6.43311  39.6493  215  224  231  
-1.44475  5.43356  33.6449  85  86  101  
-6.34001  8.1545  49.7306  163  176  195  
-5.37459  7.48955  45.7016  115  122  141  
-5.02101  7.28935  44.6309  124  140  160  
1.50197  5.89812  36.6332  65  66  77  
-8.87442  9.81284  59.2236  138  144  157  
-6.78243  8.57563  51.9845  67  74  98  
-5.67568  7.62907  46.3973  117  130  150  
-1.1834  5.46819  33.6827  81  85  100  
-0.239488  5.00266  30.787  43  56  76  
0.961306  5.50009  33.9965  79  84  104  
1.24141  5.72434  35.3107  51  58  73  
1.8844  6.37718  39.416  104  101  107  
2.77741  7.18748  44.5209  65  63  72  
-7.21108  9.5921  57.8642  148  162  181  
-3.57834  6.2426  37.6882  218  224  233  
1.76656  6.40785  39.3568  103  105  114  
4.55671  8.96552  54.8802  68  69  79  
-6.71765  8.65897  51.8804  79  89  113  
-5.00735  7.28592  43.6814  147  163  181  
-1.21193  5.54915  33.5733  62  55  67  
0.608373  5.37957  32.8161  43  52  78  
0.434103  5.24042  31.7556  46  54  75  
0.67187  5.40688  32.7942  43  50  72  
0.958541  5.58354  33.8998  52  54  73  
2.57204  6.99662  42.5501  85  88  99  
-9.48704  10.4621  61.8574  112  116  131  
-9.34583  10.5067  62.1399  150  161  172  
-6.83857  8.42027  49.6724  138  141  157  
-4.49183  6.78968  40.2293  177  191  204  
-4.11668  6.81599  40.4252  214  223  234  
-1.11216  5.60631  33.5334  48  42  51  
2.11587  6.31208  38.0069  54  57  69  
-8.36948  10.1254  59.5901  176  185  198  
-4.06412  6.58177  38.7912  168  181  192  
-2.80635  5.3036  31.0775  222  231  240  
1.2705  6.02942  36.2194  53  57  71  
2.06775  7.06291  42.4011  86  84  93  
-7.28178  9.16604  53.9541  93  106  124  
-6.38963  8.73551  51.4634  171  184  202  
-4.40716  6.85819  40.1783  227  236  247  
-3.63002  6.3887  37.459  211  225  241  
-3.14905  6.22129  36.6159  67  53  56  
-7.86461  9.6966  56.412  179  194  208  
-7.02673  8.79462  51.1541  115  122  139  
-5.17532  7.43588  43.2913  167  178  192  
-5.01167  7.55882  44.1634  220  233  245  
-3.8697  6.17142  35.9327  219  227  238  
-3.76673  6.41021  37.3566  146  158  173  
1.1641  5.92352  35.0574  82  84  97  
-8.51062  10.2574  59.1531  83  90  109  
-7.23308  9.29772  53.8016  96  105  124  
-6.6448  8.8926  51.9243  155  166  189  
-5.92563  8.27551  48.0509  200  213  229  
-2.99891  5.45572  31.5982  191  205  220  
-2.81386  5.83334  33.8392  72  55  64  
-3.75883  6.46959  37.2786  220  229  241  
0.511334  5.59358  32.6571  40  46  64  
-8.29626  9.78742  55.7764  155  158  167  
-7.39679  8.97332  51.1395  157  167  183  
-5.64384  7.97394  45.7707  203  216  233  
-3.33316  6.01221  34.3483  215  224  234  
-0.0293266  5.43852  31.5145  40  36  52  
1.70984  6.39246  37.3548  53  52  65  
3.13087  7.85203  45.9042  98  99  109  
-4.53047  7.00374  39.8748  230  238  249  
-3.89426  6.57717  37.5737  225  234  243  
-2.77376  5.91712  33.7552  215  228  240  
-2.83412  6.34283  36.213  139  136  140  
0.861954  5.65298  32.6663  76  80  95  
1.2979  6.20338  36.0034  58  59  71  
2.26817  6.90543  40.1819  54  59  72  
2.69694  7.56172  43.9187  56  58  69  
-4.63586  7.02632  39.7708  184  195  209  
-2.99162  5.74034  32.5278  180  185  195  
0.0014153  5.66397  32.4644  84  76  86  
0.216721  5.49515  31.5107  42  45  60  
1.66988  6.45199  37.2747  117  116  129  
2.09015  7.01065  40.4343  93  95  106  
-10.0929  11.6688  65.2158  167  174  190  
-7.46007  9.57629  53.568  174  182  199  
-5.806  7.91634  44.5303  181  192  210  
-2.89655  5.96555  33.6442  149  157  171  
-2.63481  6.01837  34.162  143  145  156  
-0.0600165  5.52378  31.3852  60  52  55  
-5.64856  8.21053  46.2302  177  189  204  
-2.5155  4.9044  27.2279  204  211  223  
-2.86972  5.75732  32.1856  217  224  234  
-2.57285  6.02911  34.2295  150  151  159  
-2.35924  5.74071  32.0506  217  228  237  
-2.23101  5.64369  31.6889  214  216  224  
0.381825  5.7243  32.4838  50  50  65  
1.81766  6.80991  38.814  107  111  122  
-6.96858  9.25126  51.3399  116  131  157  
-2.61248  5.83697  32.572  137  149  168  
1.22324  6.14974  34.7976  50  50  61  
1.44234  6.36491  36.0392  48  47  59  
-9.50725  11.563  63.7929  125  134  150  
-8.78019  10.8123  59.4823  191  200  208  
-8.01182  10.1001  55.7246  122  129  145  
-4.61451  7.03936  38.8656  169  180  194  
-1.89442  5.53505  30.7614  226  239  245  
-1.68714  5.54316  30.8264  217  216  212  
1.51152  6.39446  36.0144  47  48  61  
-6.88976  8.927  48.843  174  188  204  
-4.50315  7.08066  38.8949  220  230  239  
-2.6563  5.09993  27.8584  218  226  239  
-2.25532  5.71995  31.595  164  176  193  
0.571073  5.8071  32.4337  42  44  58  
-3.71723  6.42269  35.1043  213  227  239  
-2.62938  5.75322  31.6601  213  226  237  
-2.12657  5.57593  30.6337  210  224  235  
1.69166  6.48962  36.0734  87  93  107  
2.15471  7.19864  40.1716  53  53  66  
-7.56311  9.75379  52.8082  127  136  157  
-6.676  9.05658  49.0515  179  196  217  
-7.35737  11.0767  60.2767  185  198  212  
-2.402  5.76482  31.489  159  168  183  
-1.73324  5.59469  30.5262  218  225  235  
-1.43168  5.46247  29.9044  98  88  90  
1.0147  6.05647  33.5085  91  91  102  
-4.01838  6.52903  35.3799  180  190  199  
-2.57131  5.5743  30.1741  195  205  218  
-2.15222  5.62485  30.5721  129  142  157  
-6.10482  9.15199  49.5005  176  192  204  
-3.77991  7.07986  38.2301  195  206  221  
-2.91299  6.13261  33.0322  150  165  180  
-2.54766  5.80927  31.3829  221  231  244  
-2.42778  5.81468  31.4236  174  180  194  
-1.90537  5.63548  30.4085  212  222  235  
0.848967  6.10757  33.4158  58  59  70  
1.11437  6.31488  34.5786  94  94  108  
1.9172  7.0223  38.5372  52  54  70  
-7.53436  9.87148  52.6105  184  194  212  
-6.98726  9.49237  50.7423  119  129  156  
-3.87441  6.42979  34.2932  153  164  182  
-2.96987  5.95836  31.9052  131  136  156  
-2.17776  5.67357  30.5106  204  216  229  
-1.49906  5.37516  28.9465  231  233  242  
-0.0291223  5.75513  31.1503  92  81  83  
-4.11875  6.52733  34.7085  153  166  181  
-3.30973  6.1581  32.786  132  149  165  
-1.93207  5.36106  28.6025  132  142  159  
-1.58144  5.39588  28.8985  182  195  205  
1.48791  6.88062  37.1252  74  77  86  
-7.17396  9.42687  49.576  116  126  146  
-1.73863  5.39432  28.6489  148  154  173  
-1.37439  5.73798  30.5296  81  74  76  
0.904897  6.6134  35.6277  84  83  90  
-4.25227  7.34406  38.703  220  228  239  
-2.87454  5.6313  29.5879  217  225  239  
-2.36044  5.70919  30.1281  162  171  181  
-2.08052  5.58306  29.5557  210  223  237  
-1.62513  5.60155  29.6957  223  232  244  
-0.822838  5.47155  29.0705  59  50  54  
1.24521  6.42698  34.4693  52  56  65  
2.26294  7.70744  41.4455  44  47  61  
-7.46193  9.82878  51.1649  179  191  207  
-3.83037  6.95531  36.5667  182  195  207  
-2.64173  5.8451  30.5904  182  192  204  
-2.17914  5.57665  29.2828  184  194  205  
-1.40527  5.45804  28.7208  219  219  227  
-0.744491  5.34602  28.2568  93  84  86  
1.17648  6.45331  34.4246  84  85  96  
-7.05814  9.69567  50.3693  131  142  163  
-6.41706  8.95225  46.5017  173  187  205  
-6.81765  9.77496  50.8096  135  143  160  
-5.97536  9.17925  47.9895  146  160  176  
-4.11553  6.77174  35.1945  175  188  203  
-3.91895  6.56012  34.0947  210  222  233  
-1.84951  5.16714  26.9933  192  203  216  
-1.59718  5.47211  28.6301  210  221  237  
0.335502  5.88093  31.1259  91  88  94  
2.20521  7.20314  38.3276  76  83  95  
-3.40728  6.21078  32.1303  179  187  201  
-3.3253  6.28734  32.6237  215  227  240  
-2.52571  5.77293  29.9854  219  230  239  
-2.23997  5.78951  30.098  191  198  206  
-0.633646  5.39654  28.2429  95  84  86  
1.9126  7.27695  38.3966  84  90  104  
-7.77838  10.0161  51.466  119  130  146  
-5.30689  8.31286  42.8948  166  182  199  
-2.60468  6.24239  32.5347  219  229  237  
-1.70437  5.51364  28.5461  223  228  240  
-1.59465  5.51923  28.5851  152  160  175  
-7.2341  9.60487  48.9881  153  162  180  
-4.47614  7.46672  38.3389  168  183  199  
-2.66054  5.67767  29.2468  186  199  211  
-2.39415  5.66012  29.1042  182  190  199  
-2.06054  5.6787  29.2304  162  175  191  
-1.5644  4.93669  25.2773  195  203  214  
-1.32278  5.57162  28.81  213  214  225  
-1.23211  5.42111  28.0314  73  63  71  
-0.303334  5.43605  28.3347  65  56  58  
1.73119  7.07232  36.9207  95  99  114  
-3.64439  6.55535  33.491  210  221  231  
-2.97618  6.18737  31.6409  165  178  189  
-2.82672  6.19745  31.7063  169  183  195  
-8.43949  12.6662  64.6021  130  137  160  
-3.83891  6.63543  33.8042  194  204  214  
-3.33577  6.31953  32.0514  167  182  198  
-1.68597  5.12706  26.0568  160  172  188  
-0.9024  5.46996  27.96  96  85  90  
1.61189  7.08778  36.7106  64  66  84  
-2.64951  6.06747  30.7369  119  133  149  
-1.39075  5.59798  28.3643  182  186  203  
-1.11406  5.33653  27.1168  69  61  66  
-7.53868  10.0648  50.3267  157  170  185  
-6.09401  9.26379  46.4986  181  193  208  
-5.38744  8.32253  41.6584  150  162  177  
-5.81955  9.19315  46.2787  149  163  183  
-2.93404  5.72271  28.798  187  199  211  
-2.93759  6.01873  30.2345  170  175  185  
-1.16109  5.33756  26.9162  193  194  208  
1.30558  6.70238  34.2532  97  99  114  
-7.95353  11.3416  56.6431  122  135  154  
-5.0642  8.17612  40.9442  150  166  188  
-2.8768  6.10194  30.5881  207  218  224  
-2.76109  6.10953  30.6366  145  162  177  
-2.22518  5.51136  27.7795  183  194  200  
-1.44274  5.52776  27.8613  197  204  217  
-1.21691  5.37636  27.042  141  151  166  
1.93597  7.48405  38.121  41  46  62  
-5.14943  8.55335  42.643  147  165  183  
-3.88636  6.80304  33.8135  206  217  229  
-3.7036  6.59734  32.7912  149  163  175  
-3.41304  6.41397  31.8908  150  161  178  
-2.57226  5.91747  29.4574  200  209  223  
-2.04757  5.65817  28.2634  217  226  236  
-1.82283  5.24673  26.2661  169  178  191  
-1.10432  5.2469  26.1991  190  195  208  
1.26555  6.7697  34.0853  84  90  104  
